# .PCD v0.7 - Point Cloud Data file format
VERSION 0.7
FIELDS x y z rgba
SIZE 4 4 4 4
TYPE F F F U
COUNT 1 1 1 1
WIDTH 1114
HEIGHT 1
VIEWPOINT 0 0 0 1 0 0 0
POINTS 1114
DATA ascii
nan nan 1.1588889 7371644
nan nan 1.1592937 8355990
nan nan 1.1597257 9738663
nan nan 1.1601884 10724016
nan nan 1.1606855 11842227
nan nan 1.12911 15988469
nan nan 1.1275314 16054516
-0.63565713 0.086400002 1.0825063 4294901500
-0.63154292 0.086400002 1.0820966 4294506996
-0.62355816 0.086400002 1.0822451 4292403167
-0.61529911 0.086400002 1.0828984 4293454822
-0.60872 0.086720005 1.0830116 4293389283
-0.60043812 0.086720005 1.0831174 4293322470
-0.59379053 0.086959995 1.0839494 4292665562
-0.58387429 0.086959995 1.0836535 4292993011
-0.5755924 0.086959995 1.0837252 4292730585
-0.56887621 0.087200001 1.0841167 4292073428
-0.56057143 0.087200001 1.0841662 4292007896
-0.55581331 0.087200001 1.0846241 4292467931
-0.54745525 0.087520011 1.0849581 4294506996
-0.53909713 0.087520011 1.0849699 4294901500
-0.5292877 0.087520011 1.0849141 4294901500
-0.52095246 0.087520011 1.0851477 4294901500
-0.51402283 0.087760001 1.0856564 4294901502
-0.50566477 0.087760001 1.085876 4294901502
-0.49730664 0.087760001 1.0860912 4294901500
-0.48894855 0.087760001 1.0863018 4294901500
-0.48059046 0.087760001 1.0865084 4294901500
-0.47223237 0.087760001 1.086711 4294901500
-0.46387428 0.087760001 1.0869098 4294901500
-0.45551619 0.087760001 1.0871044 4294901500
-0.44715807 0.087760001 1.0872954 4294901500
-0.44040003 0.087760001 1.0874828 4294901500
-0.43253142 0.087760001 1.0876671 4294901500
-0.42362288 0.088080004 1.088167 4294901500
-0.41523433 0.088080004 1.0883385 4294901500
-0.40832382 0.088080004 1.0889497 4294901500
-0.39990476 0.088399999 1.0892315 4294901500
-0.39148572 0.088080004 1.0891236 4294901500
-0.38306665 0.088080004 1.0897926 4294901500
-0.37566477 0.088640004 1.0904061 4294901500
-0.36833334 0.088640004 1.0906996 4294901502
-0.36007622 0.088640004 1.0914949 4294901502
-0.35160384 0.088960014 1.0918059 4294901502
-0.34313145 0.088960014 1.0921159 4294901502
-0.33465907 0.088960014 1.0924246 4294901502
-0.32618669 0.088960014 1.092732 4294901502
-0.3177143 0.088960014 1.0930381 4294901502
-0.30924195 0.088960014 1.0933431 4294901502
-0.30158097 0.088960014 1.094138 4294901502
-0.29308569 0.089200005 1.0944539 4294901502
-0.28459048 0.089200005 1.0946124 4294901502
-0.27609524 0.089200005 1.0947707 4294901502
-0.2676 0.089200005 1.094929 4294901502
-0.26003429 0.089520007 1.0958961 4294901502
-0.25150859 0.089520007 1.0960822 4294901502
-0.24298288 0.089520007 1.0962683 4294901502
-0.23529525 0.089840002 1.0973828 4294901502
-0.22673905 0.089840002 1.0975976 4294901502
-0.21740572 0.089520007 1.0968257 4294901502
-0.21018668 0.089840002 1.0980265 4294901502
-0.20160761 0.090080008 1.0990505 4294901502
-0.19371428 0.090399995 1.1004348 4294901502
-0.18510476 0.090399995 1.100701 4294901502
-0.17649522 0.090080008 1.0997579 4294901502
-0.16729143 0.089840002 1.0999933 4294901502
-0.15871239 0.089840002 1.1001052 4294901502
-0.14826667 0.088640004 1.0961643 4278394678
-0.13891429 0.088399999 1.094384 4294572790
-0.13049524 0.088399999 1.0944453 4293980396
-0.1220762 0.088399999 1.0945067 4294572534
-0.11365715 0.088399999 1.0945683 4294704375
-0.10523809 0.088399999 1.0946301 4294572791
-0.096819051 0.088399999 1.0946922 4294704377
-0.088640004 0.088640004 1.0955788 4294506993
-0.080704756 0.088960014 1.0967906 4294901498
-0.072015241 0.088960014 1.0968698 4294506998
-0.063542865 0.088960014 1.0969493 4293783534
-0.054872382 0.088399999 1.0958581 4293256933
-0.046304762 0.088080004 1.0950687 4293914605
-0.037885714 0.088080004 1.0951321 4294046193
-0.029466666 0.088399999 1.0955285 4291874509
-0.02104762 0.088399999 1.0959277 4290493898
-0.012662858 0.088399999 1.0971857 4294572537
-0.0042209523 0.088640004 1.0975862 4293717740
0.004236191 0.088640004 1.0991439 4293848022
0.012662858 0.088960014 1.0995406 4294045396
0.021238094 0.088960014 1.1008096 4293453244
0.029733334 0.089200005 1.1012014 4292859543
0.03812572 0.088960014 1.1007426 4292596580
0.046598099 0.088960014 1.1011472 4292727126
0.055070482 0.089200005 1.1023858 4292661323
0.063714288 0.089200005 1.1027837 4293980892
0.072468571 0.089520007 1.1042781 4291548632
0.080994293 0.089520007 1.1046618 4292138719
0.089520007 0.089520007 1.1050463 4293717738
0.098045722 0.089520007 1.1057197 4291743179
0.10657144 0.089520007 1.1063919 4293058528
0.11509714 0.089520007 1.1070626 4292138966
0.12362287 0.089520007 1.1077319 4292796903
0.13214858 0.089520007 1.1083997 4293322206
0.14117715 0.089840002 1.1099863 4293585638
0.14973333 0.089840002 1.1106211 4294111725
0.15828954 0.089840002 1.1112531 4294375158
0.16684571 0.089840002 1.1118824 4293388524
0.17587048 0.089840002 1.1130956 4293255907
0.18444954 0.090080008 1.1144289 4292994277
0.19302858 0.090080008 1.1142842 4292335579
0.20160761 0.090080008 1.1148732 4292074197
0.21093333 0.090399995 1.1160749 4291942112
0.21954286 0.090399995 1.1166147 4292139487
0.22815238 0.090399995 1.1173557 4292270561
0.23676191 0.090399995 1.118089 4292665570
0.24624 0.090399995 1.1190809 4291876050
0.25488001 0.090720005 1.1197995 4292732132
0.26352 0.090720005 1.1205095 4292730846
0.27311999 0.09104 1.1214237 4293454826
0.28179047 0.09104 1.1221223 4293980400
0.29046094 0.09104 1.1228118 4293783279
0.29913142 0.09104 1.1234928 4293586156
0.30780193 0.09104 1.1241652 4293651437
0.31647238 0.09104 1.1248292 4293651948
0.32514286 0.09104 1.1254846 4293585899
0.33381334 0.09104 1.126132 4293651691
0.34248382 0.09104 1.1267717 4293454570
0.3511543 0.09104 1.1274033 4293520362
0.36077335 0.091279998 1.1284453 4293454569
0.36946666 0.091279998 1.1292975 4293454314
0.37948573 0.091600008 1.1304818 4293651435
0.38820955 0.091600008 1.1313447 4293717228
0.39693335 0.091600008 1.1321992 4293848814
0.40424001 0.091600008 1.1330456 4293717228
0.414381 0.091600008 1.1338837 4293454056
0.42310479 0.091600008 1.1347142 4293256677
0.43182862 0.091600008 1.1355368 4293388263
0.44055241 0.091600008 1.1363515 4292467160
0.44927624 0.091600008 1.1371585 4290756806
0.45800003 0.091600008 1.137958 4289440953
0.46672383 0.091600008 1.1387503 4288061100
0.47544765 0.091600008 1.1395353 4289639863
0.48417145 0.091600008 1.140313 4290822588
0.49289528 0.091600008 1.1409562 4290755519
0.5016191 0.091600008 1.1416112 4288520614
0.5103429 0.091600008 1.1422788 4288322724
0.51906669 0.091600008 1.1429591 4289703873
0.52779055 0.091600008 1.1436529 4290297279
0.53651428 0.091600008 1.1443599 4290493374
0.54523814 0.091600008 1.145081 4291742668
0.55396193 0.091600008 1.1458164 4291940565
0.56661713 0.091920003 1.1479211 4290692049
0.5754019 0.092239998 1.1487025 4289835201
0.58418667 0.092239998 1.1494974 4289966784
0.59297144 0.092239998 1.1503053 4288848037
0.60384381 0.092239998 1.1518413 4285431948
0.6126591 0.092560001 1.1526778 4286416024
0.6193257 0.092239998 1.1528144 4289046945
0.62811047 0.092239998 1.1531138 4288719033
nan nan 1.1585387 9871276
nan nan 1.1588689 8159104
nan nan 1.1592191 3758185
nan nan 1.1595919 2901599
nan nan 1.1599889 2900818
nan nan 1.1604127 4342358
nan nan 1.1608661 5526614
nan nan 1.1613525 7368037
nan nan 1.129624 11516342
nan nan 1.128057 12567996
-0.63565713 0.094628572 1.082375 4294901502
-0.62948573 0.094365716 1.0825357 4294901500
-0.62125713 0.094365716 1.0826851 4294901502
-0.61302865 0.094628572 1.082824 4294901502
-0.60480005 0.094628572 1.082954 4294901502
-0.59862858 0.094628572 1.0830754 4294901500
-0.59215617 0.094979055 1.0836691 4294901500
-0.58226287 0.094979055 1.0837632 4294901500
-0.57400382 0.094979055 1.0838522 4294901500
-0.56731051 0.094979055 1.0842507 4294901500
-0.55902857 0.095241904 1.084627 4294901500
-0.55429339 0.095241904 1.0846748 4294901500
-0.5459581 0.095855244 1.0851156 4294901500
-0.53762287 0.095855244 1.0851411 4294901500
-0.5292877 0.095855244 1.0853779 4294901500
-0.52095246 0.095855244 1.0856102 4294901500
-0.51402283 0.095855244 1.0858378 4294901500
-0.50428194 0.095855244 1.0860609 4294901500
-0.49730664 0.095855244 1.0865537 4294901500
-0.48761144 0.095855244 1.0864943 4294901500
-0.48059046 0.095855244 1.0867047 4294901500
-0.47223237 0.095855244 1.0871722 4294901500
-0.46387428 0.095855244 1.0873703 4294901500
-0.45551619 0.095855244 1.0875648 4294901500
-0.44715807 0.0961181 1.0877557 4294901500
-0.44088951 0.096468575 1.0882819 4294901500
-0.43358096 0.096468575 1.08846 4294901500
-0.42362288 0.0961181 1.0886348 4294901500
-0.41523433 0.096468575 1.0888064 4294901500
-0.40684572 0.0961181 1.0890623 4294901500
-0.39845717 0.0961181 1.0893177 4294901500
-0.39006859 0.0961181 1.0895728 4294901500
-0.38238287 0.0961181 1.0898272 4294901500
-0.37566477 0.096819051 1.0905246 4294901500
-0.36622858 0.096819051 1.090799 4294901500
-0.35878095 0.096819051 1.0914497 4294901500
-0.35160384 0.097081907 1.0917381 4294901500
-0.34313145 0.097081907 1.0925896 4294901500
-0.33465907 0.09743239 1.0928967 4294901500
-0.32618669 0.09743239 1.0932027 4294901500
-0.3177143 0.09743239 1.0935074 4294901500
-0.30924195 0.09743239 1.093811 4294901500
-0.30076957 0.09743239 1.0941135 4294901500
-0.29308569 0.097695239 1.0949439 4294901500
-0.28459048 0.097695239 1.0950962 4294901500
-0.27609524 0.097695239 1.0952481 4294901500
-0.2676 0.097695239 1.0954002 4294901500
-0.26003429 0.097695239 1.096404 4294901500
-0.25150859 0.097695239 1.0965862 4294901500
-0.24298288 0.098045722 1.0967685 4294901500
-0.23529525 0.09839619 1.0979302 4294901500
-0.22673905 0.098045722 1.0981433 4294901500
-0.21818286 0.098045722 1.0973141 4294901500
-0.20962666 0.098045722 1.0985692 4294901500
-0.20160761 0.09839619 1.0996383 4294901502
-0.19371428 0.099009521 1.1010885 4294901500
-0.18510476 0.099009521 1.1013573 4294901500
-0.17649522 0.099009521 1.1016258 4294901500
-0.16729143 0.098659046 1.101894 4294901500
-0.15871239 0.098659046 1.1006898 4294901500
-0.14773335 0.097081907 1.0953606 4282145404
-0.13891429 0.096819051 1.0945877 4294441201
-0.13049524 0.096819051 1.0946398 4293849577
-0.1220762 0.096819051 1.0946922 4294375411
-0.11365715 0.096819051 1.0947447 4294309618
-0.10552381 0.096819051 1.0947977 4294441203
-0.096819051 0.096819051 1.0948505 4294770168
-0.088960014 0.097081907 1.0957824 4292731089
-0.080704756 0.09743239 1.0980012 4292533452
-0.072015241 0.09743239 1.0971323 4292007373
-0.063542865 0.09743239 1.0972044 4291744451
-0.055070482 0.097081907 1.0972767 4291152055
-0.046304762 0.096468575 1.0951717 4292269255
-0.037748571 0.096468575 1.0940264 4290557615
-0.029466666 0.096819051 1.0956239 4288058253
-0.02104762 0.096819051 1.0960248 4287005323
-0.012662858 0.096819051 1.0973409 4291743957
-0.0042209523 0.097081907 1.097743 4285886331
0.004236191 0.09743239 1.0993763 4291608690
0.012708573 0.09743239 1.0997736 4291674989
0.021238094 0.097695239 1.1010982 4292857704
0.029733334 0.097695239 1.1027343 4292791924
0.038228571 0.097695239 1.1018836 4292792678
0.046598099 0.097695239 1.1022792 4292726124
0.055219047 0.097695239 1.1026763 4292594784
0.063942865 0.098045722 1.1042525 4293715667
0.072468571 0.098045722 1.104635 4293520107
0.080994293 0.098045722 1.1050185 4293651950
0.089520007 0.098045722 1.1054029 4293060320
0.098045722 0.098045722 1.1060802 4292731357
0.10657144 0.098045722 1.1067563 4291613382
0.11550857 0.09839619 1.1084872 4293386462
0.12362287 0.09839619 1.1091321 4291413964
0.13262095 0.09839619 1.1097746 4291677636
0.14117715 0.09839619 1.1104145 4293322452
0.14973333 0.09839619 1.1110518 4292468694
0.15828954 0.09839619 1.1116867 4292927963
0.16684571 0.09839619 1.1123191 4293718241
0.17587048 0.098659046 1.1135602 4294440951
0.18510476 0.098659046 1.1149235 4294835706
0.19371428 0.099009521 1.1154752 4294704123
0.20160761 0.098659046 1.1160228 4294769916
0.21168001 0.099009521 1.1168394 4294506745
0.22032002 0.099360004 1.1173624 4294375158
0.22815238 0.099009521 1.1178551 4294111986
0.23676191 0.099009521 1.1185963 4293914607
0.24624 0.099360004 1.1195964 4293651434
0.25488001 0.099710472 1.1205192 4293914607
0.26352 0.099710472 1.1212442 4294046193
0.27311999 0.099710472 1.1219598 4293980656
0.28179047 0.099710472 1.1226665 4293980656
0.29046094 0.099710472 1.123364 4294046193
0.29913142 0.099710472 1.1240523 4294046193
0.30780193 0.099710472 1.1247321 4293717485
0.31647238 0.099710472 1.1254035 4293585642
0.32514286 0.099710472 1.1260663 4293060061
0.33381334 0.099710472 1.1267209 4292270295
0.34248382 0.099710472 1.1275505 4290756555
0.35208002 0.099973336 1.1281888 4288521396
0.36077335 0.099973336 1.1290679 4288915370
0.36946666 0.099973336 1.1302532 4290164665
0.37948573 0.10032382 1.1311432 4291019465
0.38820955 0.10032382 1.1320235 4289638841
0.39693335 0.10032382 1.132895 4287993766
0.40565717 0.10032382 1.1337569 4288126129
0.414381 0.10032382 1.1346101 4290229438
0.42310479 0.10032382 1.1354542 4290756032
0.43182862 0.10032382 1.1362896 4291216842
0.44055241 0.10032382 1.1371166 4292401109
0.44927624 0.10032382 1.1379348 4291677142
0.45800003 0.10032382 1.1387447 4291085008
0.46672383 0.10032382 1.1395469 4290033095
0.47544765 0.10032382 1.1403407 4290427069
0.48417145 0.10032382 1.1411264 4287926951
0.49289528 0.10032382 1.141777 4286089610
0.5016191 0.10032382 1.1424394 4288915622
0.5103429 0.10032382 1.1431134 4291018952
0.51906669 0.10032382 1.1437998 4289245119
0.52779055 0.10032382 1.1444987 4286283137
0.53651428 0.10032382 1.1452103 4286281595
0.54523814 0.10032382 1.1459353 4287730333
0.55396193 0.10067429 1.1473346 4290033338
0.56661713 0.10102475 1.1487776 4291545807
0.5754019 0.10102475 1.1495588 4293125604
0.58216 0.10067429 1.1496588 4294111982
0.59297144 0.10067429 1.151158 4294178033
0.60175616 0.10102475 1.1519767 4293981170
0.61054093 0.10102475 1.1528084 4293915120
0.6193257 0.10102475 1.1536535 4293717741
0.62811047 0.10102475 1.1539505 4293389033
nan nan 1.1592749 15263717
nan nan 1.1595987 15197922
nan nan 1.1599424 15001317
nan nan 1.1603075 14870501
nan nan 1.1606964 14409950
nan nan 1.161111 14015708
nan nan 1.1615545 14344671
nan nan 1.16203 13818329
nan nan 1.1301538 16711422
nan nan 1.1285989 16711422
-0.6338914 0.10257144 1.0825195 4294901502
-0.62744951 0.10219049 1.082662 4294901502
-0.61927432 0.10219049 1.0827942 4294901502
-0.61132574 0.10257144 1.0829173 4294901502
-0.60311997 0.10257144 1.0830324 4294901502
-0.59657145 0.10257144 1.0835428 4294901502
-0.58834285 0.10257144 1.0836575 4294901500
-0.58011425 0.10257144 1.0833358 4294901500
-0.57188576 0.10257144 1.0834252 4294901500
-0.56365716 0.10285715 1.083963 4294901500
-0.55748576 0.10285715 1.0844978 4294901500
-0.55226666 0.10323811 1.0848632 4294901500
-0.54396194 0.10352381 1.0852089 4294901500
-0.53565717 0.10352381 1.0852523 4294901500
-0.52720386 0.10323811 1.0854933 4294901500
-0.51825523 0.10323811 1.0857296 4294901500
-0.5107429 0.10352381 1.0856985 4294901500
-0.50243807 0.10380952 1.0861888 4294901500
-0.49594668 0.10380952 1.0864121 4294901500
-0.48761144 0.10380952 1.0866309 4294901500
-0.47927624 0.10380952 1.086846 4294901500
-0.47094098 0.10380952 1.0873965 4294901500
-0.46260577 0.10419048 1.0875987 4294901500
-0.45427051 0.10419048 1.0877973 4294901500
-0.44715807 0.10419048 1.0879922 4294901500
-0.43879998 0.10419048 1.0884328 4294901500
-0.43134862 0.10419048 1.088617 4294901500
-0.4220838 0.10447618 1.0887979 4294901500
-0.4137257 0.10419048 1.0889757 4294901500
-0.40634289 0.10447618 1.0892023 4294901500
-0.39845717 0.10447618 1.0894284 4294901500
-0.38865143 0.10447618 1.0896544 4294901500
-0.38029334 0.10447618 1.08988 4294901500
-0.37464762 0.10485715 1.0905466 4294901500
-0.36622858 0.10485715 1.0907935 4294901500
-0.35780954 0.10485715 1.0915446 4294901500
-0.35033906 0.10523809 1.0922217 4294901500
-0.34189713 0.10552381 1.0925057 4294901500
-0.33465907 0.10552381 1.0927891 4294901500
-0.32618669 0.10552381 1.0937035 4294901500
-0.3177143 0.10590477 1.0940067 4294901500
-0.30924195 0.10590477 1.094309 4294901500
-0.30076957 0.10590477 1.09461 4294901500
-0.29308569 0.10590477 1.0954647 4294901500
-0.28459048 0.10619047 1.0956101 4294901500
-0.27609524 0.10619047 1.0957557 4294901500
-0.2676 0.10619047 1.095901 4294901500
-0.26003429 0.10619047 1.0969433 4294901500
-0.25150859 0.10619047 1.0971214 4294901500
-0.24298288 0.10657144 1.0972995 4294901500
-0.23529525 0.10695238 1.0985106 4294901496
-0.22734477 0.10695238 1.0987222 4294901500
-0.21818286 0.10657144 1.0989337 4294901502
-0.20888002 0.10657144 1.0980099 4294901500
-0.20160761 0.10657144 1.0993557 4294375660
-0.19371428 0.10761905 1.1017802 4294506474
-0.18510476 0.10761905 1.1020521 4294901500
-0.17649522 0.10761905 1.1023235 4294901498
-0.16729143 0.1072381 1.1012058 4294769655
-0.15871239 0.10657144 1.1013091 4294901496
-0.14773335 0.10523809 1.0956399 4292209117
-0.13891429 0.10523809 1.0948043 4291348669
-0.13049524 0.10523809 1.0948468 4291808955
-0.1220762 0.10523809 1.0948895 4294243824
-0.11396571 0.10523809 1.095844 4294111982
-0.10552381 0.10552381 1.0958956 4294178031
-0.096819051 0.10523809 1.095019 4294178289
-0.088640004 0.10341334 1.0959991 4278650116
-0.080704756 0.10378668 1.0973483 4279110674
-0.072015241 0.10378668 1.0974119 4278912784
-0.063542865 0.10552381 1.0974759 4278649867
-0.055070482 0.10590477 1.0975401 4278912789
-0.046137147 0.10276001 1.0952816 4278781456
-0.037748571 0.10276001 1.0940449 4278781453
-0.029546669 0.10313334 1.0967084 4278716176
-0.02104762 0.10523809 1.0961282 4278716178
-0.012662858 0.10341334 1.0965347 4278913035
-0.0042476188 0.10406667 1.0979102 4279307792
0.0042476188 0.10619047 1.1006281 4279175947
0.012742857 0.10619047 1.1010164 4279306249
0.019114286 0.10194286 1.1014068 4278913033
0.029733334 0.10444001 1.1017989 4278715655
0.038228571 0.10619047 1.102193 4279175177
0.044480007 0.10378668 1.1016406 4279440142
0.055219047 0.10406667 1.1029873 4279374350
0.061811436 0.10444001 1.1046351 4279176725
0.070337147 0.10444001 1.1050172 4279374354
0.080994293 0.10657144 1.1054007 4279439893
0.089520007 0.10657144 1.1057857 4279439893
0.098045722 0.10657144 1.106467 4279177496
0.10444001 0.10444001 1.1071475 4279308311
0.11550857 0.10481333 1.1089395 4279374104
0.12406477 0.10695238 1.1095867 4279439897
0.13262095 0.10695238 1.1102315 4279111960
0.14117715 0.10695238 1.1108743 4279046936
0.14973333 0.10695238 1.1115147 4279046417
0.15828954 0.10695238 1.1121529 4279242518
0.16625144 0.10695238 1.1127889 4279176221
0.17158096 0.10331428 1.1140597 4279373596
0.18295239 0.10546666 1.1154548 4279703074
0.19371428 0.10546666 1.1160054 4280753431
0.20304002 0.10761905 1.1168429 4280688675
0.21168001 0.10800001 1.1173686 4280884264
0.22032002 0.10800001 1.1178904 4280557091
0.22896002 0.10838095 1.1188157 4279832868
0.23760001 0.10800001 1.1194068 4279569696
0.24624 0.10800001 1.1203336 4279636243
0.25577903 0.10838095 1.1210775 4279701782
0.26352 0.10800001 1.1218114 4279043856
0.27215999 0.10800001 1.1223301 4278453010
0.28179047 0.10838095 1.1232511 4278519058
0.29046094 0.10838095 1.1239567 4278656542
0.29992002 0.10838095 1.1248283 4280299067
0.30780193 0.10838095 1.1253414 4281878081
0.31647238 0.10838095 1.1260203 4281878079
0.32514286 0.10838095 1.1266911 4283126352
0.33381334 0.10838095 1.1273534 4283784282
0.34248382 0.10838095 1.1281894 4284574050
0.35208002 0.10866667 1.1288353 4287138160
0.36077335 0.10866667 1.1297351 4287860872
0.37076196 0.10866667 1.1309412 4288715146
0.37948573 0.10904762 1.1318502 4288451978
0.38820955 0.10904762 1.1327486 4285164415
0.39693335 0.10904762 1.1336371 4283586655
0.40347621 0.10724001 1.1345149 4284112999
0.414381 0.10724001 1.1353829 4283980639
0.42310479 0.10904762 1.1362413 4285164140
0.43182862 0.10904762 1.1370897 4285294961
0.44055241 0.10904762 1.1379287 4285624183
0.44927624 0.10904762 1.139275 4285755771
0.45800003 0.10904762 1.1395786 4285952891
0.46672383 0.10904762 1.14039 4287071626
0.47544765 0.10904762 1.1411923 4288583589
0.48417145 0.10904762 1.1419859 4288913075
0.49461716 0.10904762 1.143216 4289964987
0.5016191 0.10942857 1.1439 4290823369
0.5103429 0.10904762 1.1439927 4293321433
0.51906669 0.10904762 1.1446843 4293913063
0.52779055 0.10904762 1.1453881 4293848553
0.53651428 0.10904762 1.1461035 4293980139
0.54523814 0.10942857 1.147481 4294111984
0.55396193 0.10904762 1.1475723 4294572276
0.56661713 0.10942857 1.1496705 4294440950
0.57340574 0.10942857 1.1497672 4294112499
0.58216 0.10942857 1.1505538 4293915120
0.59297144 0.10942857 1.1520438 4293783535
0.60175616 0.10980953 1.1528578 4293717230
0.60842288 0.10980953 1.1536838 4293717227
0.6193257 0.10980953 1.1545218 4293651947
0.62811047 0.10980953 1.1548153 4293454568
nan nan 1.1600257 14606559
nan nan 1.1603431 14211286
nan nan 1.1606791 14408919
nan nan 1.1610363 14408665
nan nan 1.1614161 14474458
nan nan 1.1618212 15329767
nan nan 1.1622542 14869216
nan nan 1.1627176 14277333
nan nan 1.1306999 16514556
nan nan 1.1291579 16317175
-0.62800568 0.10974857 1.0821786 4294901502
-0.62190861 0.10974857 1.0818669 4294901502
-0.6155048 0.10974857 1.0819261 4294901502
-0.60768193 0.10974857 1.0824244 4294901502
-0.60088009 0.11005715 1.0829405 4294901500
-0.5928629 0.11005715 1.0830247 4294901500
-0.5849334 0.11005715 1.0831038 4294901500
-0.57839817 0.11036573 1.0838095 4294901500
-0.56862861 0.11036573 1.0832481 4294901500
-0.56209141 0.11036573 1.0839823 4294901500
-0.5538857 0.11036573 1.0840619 4294901500
-0.54773146 0.11077715 1.0846407 4294901500
-0.54096764 0.11108572 1.08516 4294901500
-0.53270864 0.11108572 1.0852295 4294901500
-0.52444959 0.11149716 1.0854756 4294901500
-0.51619053 0.11149716 1.0857171 4294901500
-0.50811428 0.11149716 1.0859541 4294901500
-0.50105524 0.11149716 1.086187 4294901500
-0.49277332 0.11149716 1.086416 4294901500
-0.48521909 0.11149716 1.0866407 4294901502
-0.47696003 0.11149716 1.0871056 4294901500
-0.46921906 0.11149716 1.0875683 4294901500
-0.46052194 0.11149716 1.0877753 4294901500
-0.45260954 0.11180571 1.0879787 4294901500
-0.44515237 0.11180571 1.0881783 4294901500
-0.43760005 0.11211429 1.0883746 4294901500
-0.42926478 0.11211429 1.0888889 4294901500
-0.4220838 0.11252572 1.0890744 4294901500
-0.41259432 0.11211429 1.0892563 4294901500
-0.40425909 0.11211429 1.0894561 4294901500
-0.39592382 0.11252572 1.0896556 4294901500
-0.38865143 0.11252572 1.0901517 4294901500
-0.38029334 0.11252572 1.0903689 4294901500
-0.37329143 0.11283428 1.0910431 4294901500
-0.36490285 0.11324572 1.0912833 4294901500
-0.3565143 0.11324572 1.0915235 4294901502
-0.34939048 0.11324572 1.0917631 4294572019
-0.34097144 0.11324572 1.0925742 4292927194
-0.33345526 0.11396571 1.0932978 4289445566
-0.32618669 0.11396571 1.0942372 4291549382
-0.3177143 0.11437715 1.094539 4294901498
-0.30924195 0.11396571 1.0941329 4294901498
-0.30076957 0.11396571 1.0951393 4294046434
-0.29308569 0.11437715 1.0954378 4293190345
-0.28459048 0.11437715 1.0961581 4294901490
-0.27609524 0.11437715 1.0956622 4294901502
-0.26730478 0.11396571 1.0957743 4294901502
-0.25910476 0.11437715 1.0965726 4294901502
-0.25060955 0.11437715 1.0967108 4294901502
-0.24298288 0.11468571 1.0968486 4294901502
-0.23445717 0.11468571 1.0980376 4294901500
-0.2266362 0.11468571 1.0971239 4294901500
-0.21818286 0.11468571 1.0983838 4294901500
-0.20813334 0.11468571 1.0973989 4293058505
-0.20035429 0.11296572 1.0987293 4285093489
-0.19302858 0.11367238 1.1011586 4280359713
-0.18510476 0.11367238 1.1013952 4281018409
-0.17649522 0.11407619 1.103063 4281216304
-0.16684571 0.11192381 1.1007993 4281280038
-0.13857143 0.10130477 0.97700232 4280493605
-0.13302858 0.10161905 0.97713941 4281216039
-0.13680953 0.10905144 1.0938125 4281413423
-0.13049524 0.11155239 1.0950679 4278388993
-0.12240762 0.11396571 1.0960622 4294112232
-0.11437715 0.11437715 1.0974357 4293914858
-0.10590477 0.11437715 1.0974902 4293980651
-0.09892381 0.11155239 1.0951989 4294046700
-0.079360001 0.10203429 0.99478912 4278454292
-0.072019048 0.10172572 0.99138099 4278783506
-0.063920006 0.10152001 0.99140143 4282136634
-0.056228571 0.10090286 0.98579884 4281676607
-0.048582863 0.10059429 0.98249549 4281546564
-0.041108571 0.10059429 0.98157287 4281939536
-0.035394285 0.10059429 0.98167259 4282794575
-0.026000001 0.10008001 0.97981399 4281676605
-0.018476192 0.099771433 0.97706288 4281940766
-0.011051429 0.099462859 0.9749288 4280096795
-0.0036838097 0.099154294 0.97268844 4279372820
0.0036723812 0.099154294 0.97169465 4279176975
0.011017144 0.099154294 0.97069389 4279110930
0.018323811 0.098948583 0.96968591 4278979344
0.025573334 0.098640002 0.96628666 4279045138
0.034308571 0.10015238 0.96374887 4279241747
0.039725717 0.097508579 0.95858955 4279242516
0.046849523 0.097302862 0.95748532 4279374613
0.053885717 0.096994288 0.95375991 4279110932
0.060876194 0.096685715 0.95266646 4279702039
0.068038099 0.096685715 0.95000225 4279438869
0.075039998 0.097952388 0.94788677 4279176727
0.081748575 0.095657155 0.94367945 4279176981
0.089047626 0.095657155 0.94314945 4279242518
0.095965713 0.095657155 0.94156384 4279111960
0.10219049 0.095451437 0.93721306 4279046166
0.11100001 0.09690477 0.9348768 4279176981
0.11740952 0.096380956 0.9319331 4279242262
0.12266667 0.094628572 0.93030709 4279242261
0.12939429 0.094628572 0.92869842 4279372821
0.13668571 0.094422862 0.92710668 4279439642
0.14291428 0.094422862 0.92495441 4279768351
0.14988571 0.094114281 0.9233973 4280556583
0.15685713 0.093908571 0.92098546 4280819233
0.16293333 0.095333338 0.91889298 4280753441
0.17084572 0.095123813 0.91595536 4280884772
0.17641144 0.094914287 0.9139626 4280885285
0.18191619 0.092880011 0.91103697 4280687655
0.18815239 0.092365719 0.90866292 4280425511
0.1949943 0.092365719 0.90720916 4280293667
0.20251048 0.092674285 0.90668738 4280162337
0.20821334 0.093657143 0.90369469 4279636507
0.21384001 0.093342856 0.90073037 4279242005
0.22062857 0.093133338 0.89872897 4279176726
0.22690667 0.093133338 0.89735317 4279373077
0.23484382 0.093133338 0.89599144 4279372822
0.23937143 0.092714287 0.89356244 4279372821
0.24528 0.092399999 0.89227396 4279437596
0.32183999 0.11232001 1.1271361 4279306772
0.33048001 0.11271619 1.1280339 4279044627
0.2665143 0.092190482 0.88750857 4279110420
0.27154288 0.091666676 0.88605452 4279110676
0.27769715 0.091457151 0.88483119 4279110420
0.28203809 0.091247626 0.88339096 4278979350
0.28867432 0.091247626 0.88258576 4278979347
0.29628763 0.0910381 0.88141406 4278848279
0.30125335 0.089382865 0.88056833 4278979347
0.30716574 0.089177147 0.87934572 4278979090
0.31268573 0.088868573 0.87791038 4278979346
0.31779048 0.088662863 0.87663245 4278979346
0.32522285 0.090095237 0.87571281 4278979347
0.43990287 0.11380572 1.1392978 4278979346
0.44865716 0.11559048 1.1401522 4278847760
0.34202096 0.089152381 0.871732 4278848016
0.3468667 0.088942863 0.86981797 4278847760
0.47822669 0.1145981 1.1437989 4278847760
0.48535809 0.11599429 1.1440283 4278847253
0.4924286 0.11599429 1.1441337 4278978834
0.50118285 0.11380572 1.1448234 4278913296
0.37930286 0.088104762 0.86691445 4278847764
0.51470482 0.11340953 1.1456168 4278979342
0.52560961 0.11340953 1.1463239 4279110163
0.53838861 0.11599429 1.1476793 4279175442
0.5449543 0.11599429 1.1484191 4279240463
0.551781 0.11599429 1.1485144 4278913030
0.56465143 0.11777144 1.1499306 4281404693
0.57340574 0.11818286 1.1507032 4292072135
0.58216 0.11859429 1.152167 4290362035
0.59297144 0.11859429 1.1529645 4289506982
0.60175616 0.11859429 1.1537726 4289835432
0.61045527 0.11859429 1.1545911 4289901223
0.6193257 0.11859429 1.1554204 4289901997
0.63028955 0.11900572 1.1563902 4289570720
nan nan 1.1607919 9609110
nan nan 1.1611017 8949897
nan nan 1.16143 9344909
nan nan 1.1617785 9739147
nan nan 1.1621487 10263701
nan nan 1.1625435 10002069
nan nan 1.1629649 10592666
nan nan 1.1634158 10528413
nan nan 1.1312631 16645881
nan nan 1.1297348 16711674
-0.62035429 0.11644191 1.0808462 4294638834
-0.61809337 0.11644191 1.0812823 4294573041
-0.61174673 0.11743619 1.0817567 4294770420
-0.6054039 0.11743619 1.0817713 4294901496
-0.59730482 0.11743619 1.0817848 4293849567
-0.58718097 0.11743619 1.0817976 4293454036
-0.58110672 0.11743619 1.0818096 4293914840
-0.57313144 0.11743619 1.0825801 4294045916
-0.5650019 0.11787809 1.0826144 4293913560
-0.55687237 0.11787809 1.0826465 4293255121
-0.55028576 0.11787809 1.082677 4290557358
-0.54365337 0.11787809 1.0833118 4286416506
-0.53547812 0.11820953 1.0839491 4282604094
-0.53074288 0.11854096 1.0853367 4279837996
-0.52251428 0.11898285 1.0855685 4278783501
-0.51285714 0.11898285 1.0851486 4278651926
-0.5060572 0.11898285 1.0853292 4279440139
-0.49967244 0.11931429 1.0867286 4279045389
-0.49277332 0.1197562 1.0869563 4278978816
-0.48449144 0.1197562 1.0871797 4278322688
-0.47489527 0.11931429 1.0873995 4278256897
-0.46663624 0.11931429 1.087616 4279111182
-0.45837718 0.11931429 1.0878286 4280492304
-0.45011815 0.1197562 1.0880378 4281083950
-0.44385147 0.1197562 1.0884799 4283121993
-0.43830287 0.12086096 1.0892528 4281932826
-0.43044189 0.12119238 1.0896976 4279764992
-0.4220838 0.12086096 1.0896275 4279438848
-0.41259432 0.12086096 1.0898104 4280230656
-0.40425909 0.12041905 1.0896548 4283450669
-0.39592382 0.12086096 1.0901886 4286413687
-0.38758862 0.12086096 1.0903774 4289505445
-0.38029334 0.12119238 1.0908918 4291874504
-0.37538859 0.1216343 1.0920687 4293980913
-0.36622858 0.1216343 1.0918076 4294835700
-0.3565143 0.12119238 1.0920405 4294901498
-0.34812573 0.12119238 1.0917228 4294901500
-0.33973718 0.12119238 1.0925053 4294901502
-0.33223429 0.1216343 1.0927374 4294901500
-0.32505718 0.1216343 1.0941173 4294901500
-0.31571427 0.1216343 1.0938723 4294835961
-0.30729523 0.1216343 1.0941279 4294111466
-0.29968762 0.1216343 1.094383 4291939784
-0.28913525 0.11818668 1.0946375 4288979354
-0.28069332 0.11818668 1.0952779 4285490532
-0.2716381 0.11953715 1.0947154 4280032788
-0.26424003 0.11953715 1.0939054 4280295456
-0.25747812 0.11997143 1.0954748 4280887590
-0.21668573 0.11818668 1.0955404 4280883736
-0.20897144 0.10721143 0.96095473 4280426013
-0.19925714 0.10506286 0.95913488 4280887329
-0.19321144 0.10473144 0.96018851 4280756522
-0.18657714 0.10687429 0.96286863 4280822828
-0.17845334 0.1053943 0.96387839 4281084966
-0.17170668 0.1053943 0.96740967 4281019429
-0.16577144 0.10649905 0.97071159 4281084972
-0.15840381 0.10649905 0.97155261 4281084970
-0.1510362 0.10649905 0.9736737 4281085223
-0.14366858 0.10683048 0.97444612 4281084972
-0.1367238 0.10683048 0.97460508 4280953640
-0.12933333 0.10716191 0.97595131 4280953638
-0.12232 0.10749333 0.97724712 4281019179
-0.11700001 0.10934667 0.97738266 4280887593
-0.12284954 0.12105715 1.0977536 4293914851
-0.11437715 0.12284954 1.0977991 4293586404
-0.10619047 0.12284954 1.0978447 4293586405
-0.099550486 0.12284954 1.099005 4294243565
-0.079360001 0.10770286 0.99277985 4278387730
-0.071801908 0.10926095 0.98954922 4278979344
-0.064243808 0.10926095 0.98958135 4278979341
-0.056400001 0.10870858 0.98748869 4279111182
-0.04888 0.10870858 0.98437804 4279110926
-0.041360002 0.10870858 0.98445183 4278979858
-0.033634286 0.10837714 0.98142093 4278979596
-0.026080001 0.10771429 0.97967756 4278979596
-0.018533334 0.10749333 0.97710299 4279241490
-0.011085714 0.10716191 0.97509336 4279241747
-0.0036952381 0.10716191 0.97417206 4279045396
0.0036723812 0.10649905 0.97201687 4279176719
0.0092095248 0.10594667 0.96976823 4279111182
0.018266667 0.10594667 0.96653885 4279110932
0.025573334 0.10594667 0.96548802 4279111187
0.032708574 0.1053943 0.96303207 4279111444
0.039725717 0.10473144 0.95956129 4279176980
0.046948574 0.10473144 0.95700222 4279373842
0.054057144 0.10451048 0.95590645 4279308054
0.061070476 0.10451048 0.95382857 4279570198
0.068038099 0.10417905 0.95126206 4279242516
0.074800007 0.10329524 0.94772893 4279373842
0.081748575 0.10307429 0.94368279 4279176468
0.088857144 0.10307429 0.94210106 4279176724
0.095657155 0.10274286 0.94051963 4279242261
0.1025219 0.1025219 0.93727916 4279111451
0.1092381 0.1025219 0.93568295 4279176981
0.11603429 0.10196953 0.93333161 4279176981
0.12266667 0.10163809 0.9303717 4279110676
0.12939429 0.10141715 0.92819011 4279111189
0.13668571 0.10141715 0.92717052 4279242009
0.14338286 0.10141715 0.92501795 4279702554
0.14988571 0.10108571 0.92257893 4280097308
0.15685713 0.10108571 0.92104858 4280228377
0.16293333 0.10053334 0.91806382 4280293661
0.16949335 0.10031238 0.91601735 4280424991
0.17641144 0.10031238 0.91460449 4280425760
0.18232 0.099760011 0.91170102 4280490271
0.18878095 0.099539056 0.90964538 4280293917
0.1949943 0.099207625 0.90819478 4280162331
0.2018362 0.099207625 0.90674394 4279702555
0.20774859 0.098765723 0.90374923 4279110932
0.21384001 0.098434284 0.90078288 4279110932
0.22013335 0.098434284 0.89937979 4279110932
0.22690667 0.098213337 0.89740521 4279111188
0.2331543 0.098213337 0.89604384 4279110932
0.23937143 0.097771429 0.89415371 4279045139
0.24528 0.097440004 0.89156038 4279045139
0.2514286 0.097219057 0.89032888 4278979346
0.25813335 0.097219057 0.88873821 4278979346
0.2648381 0.097219057 0.88756329 4278913554
0.27000004 0.096666671 0.8856492 4278979346
0.2760343 0.096445717 0.88488895 4278913815
0.28268573 0.096445717 0.88378423 4278782994
0.28867432 0.096224762 0.88298261 4278782736
0.29395428 0.095782861 0.88147581 4278848016
0.30056 0.095782861 0.88027483 4278847760
0.30716574 0.095782861 0.87941062 4278781968
0.31268573 0.095230483 0.87797701 4278651408
0.31705144 0.094788581 0.87592465 4278847760
0.32358858 0.094788581 0.87501609 4278781968
0.32935622 0.094567627 0.87369925 4278781967
0.33424765 0.094015241 0.87237167 4278781968
0.34040001 0.094015241 0.87084007 4278781967
0.34606859 0.093794286 0.86950731 4278716174
0.35170668 0.093573339 0.86818057 4278847503
0.35731432 0.093352385 0.86686575 4278847504
0.36203048 0.092910476 0.86578965 4278782224
0.36843809 0.092910476 0.86545759 4278847760
0.37484571 0.092910476 0.86510414 4278847760
0.38034669 0.092689529 0.86432725 4278848274
0.38581714 0.092468575 0.86392248 4278979090
0.39032003 0.091805719 0.86266357 4278979346
0.39571428 0.091805719 0.86177278 4278979346
0.40301335 0.092026673 0.86126965 4279307541
0.40936002 0.093613341 0.86072779 4278848792
0.57718283 0.12826285 1.1537064 4290296246
0.58621335 0.12826285 1.1544895 4290361783
0.59502858 0.12826285 1.1552784 4290559922
0.60384381 0.12826285 1.1560735 4290493876
0.6126591 0.12826285 1.1568745 4290625465
0.62147433 0.12826285 1.1576818 4290822590
0.63246852 0.12826285 1.1579654 4291151297
nan nan 1.1615739 11777969
nan nan 1.161876 12303284
nan nan 1.1621952 12698038
nan nan 1.1625342 12764094
nan nan 1.1628948 11845561
nan nan 1.163278 12500920
nan nan 1.1636875 12698812
nan nan 1.1641252 12369593
nan nan 1.1318443 131073
nan nan 1.1303306 2
-0.62035429 0.12447238 1.0808015 4279702546
-0.61834669 0.12447238 1.081724 4279243280
-0.61552769 0.12553525 1.0828477 4279702544
-0.60167617 0.12482667 1.0816716 4279110662
-0.59192002 0.12447238 1.0810618 4278586627
-0.58587998 0.12447238 1.0810145 4278586627
-0.5794667 0.12518096 1.0822146 4278455044
-0.57098287 0.12518096 1.0822169 4279111180
-0.56288385 0.12518096 1.0822189 4279111178
-0.55478477 0.12553525 1.0822212 4279044883
-0.55077523 0.12600762 1.0830984 4278652416
-0.54467809 0.1267162 1.0843842 4278914305
-0.53805715 0.1267162 1.0852453 4279375114
-0.53337145 0.12801525 1.0863619 4280033046
-0.52651429 0.1267162 1.086604 4281150741
-0.51299626 0.1267162 1.0847081 4281743380
-0.50686479 0.13002285 1.08828 4283650890
-0.50566477 0.13002285 1.0884979 4285295446
-0.49912006 0.13049524 1.0891107 4286479978
-0.48894855 0.13002285 1.0889217 4288124807
-0.47927624 0.12872382 1.0888473 4289835439
-0.46999809 0.12872382 1.0886972 4291611593
-0.46091431 0.12872382 1.0886496 4291874501
-0.4513638 0.12836951 1.088856 4293452500
-0.44598863 0.12836951 1.0890589 4294439654
-0.43968382 0.1291962 1.090476 4293783530
-0.43044189 0.1291962 1.0900344 4292730333
-0.42030665 0.12836951 1.0898889 4292598495
-0.40995428 0.12801525 1.0898395 4293057497
-0.40278095 0.12836951 1.0902278 4291677895
-0.39592382 0.12872382 1.0907604 4291546566
-0.38617143 0.12836951 1.0905305 4291612870
-0.37682667 0.12836951 1.0903671 4291153092
-0.36956191 0.12836951 1.0908338 4289836472
-0.36258289 0.12872382 1.0909854 4288586145
-0.35405141 0.12836951 1.0911375 4285756793
-0.34686095 0.1271124 1.0918286 4280033568
-0.33850285 0.12537143 1.0924438 4280361253
-0.28342861 0.12537143 1.0926418 4280953386
-0.31969714 0.12582858 1.0923635 4280887593
-0.31257147 0.12629904 1.0925419 4280425759
-0.30408573 0.12537143 1.0915657 4280820774
-0.25467619 0.11077333 0.94218308 4280822057
-0.24655999 0.11077333 0.94319504 4280887593
-0.23992382 0.11077333 0.94432527 4280821800
-0.23350477 0.11100953 0.94661671 4280887592
-0.22632 0.11136381 0.94947708 4280887592
-0.21913524 0.11136381 0.95060581 4280887593
-0.2130743 0.1117181 0.95454317 4280887337
-0.20650285 0.11230858 0.95728743 4280886823
-0.19862857 0.11195429 0.95673817 4280822304
-0.19201145 0.11195429 0.95942307 4280887585
-0.18573715 0.11266286 0.96202397 4280494625
-0.17808001 0.11266286 0.96304798 4280755487
-0.17170668 0.11266286 0.96645492 4280295705
-0.16525714 0.11360763 0.96964854 4279833884
-0.15840381 0.11384381 0.97050887 4279440919
-0.1510362 0.1141981 0.97258162 4279768603
-0.14366858 0.1141981 0.97337443 4279769111
-0.1367238 0.1141981 0.97467881 4279834905
-0.12973334 0.11490668 0.97593659 4279506451
-0.12232 0.11490668 0.97608328 4280756512
-0.11455239 0.11455239 0.97622913 4280821024
-0.12105715 0.12955238 1.0993038 4294111971
-0.11468571 0.13132192 1.0993512 4293257182
-0.10619047 0.13132192 1.0982242 4293388769
-0.098045722 0.13132192 1.0994464 4294440943
-0.079599999 0.11715048 0.99396181 4278322186
-0.071801908 0.11715048 0.99087191 4278847760
-0.064243808 0.11715048 0.99394697 4279110925
-0.056514286 0.11679619 0.98788804 4279045133
-0.048979048 0.11679619 0.98793048 4279110925
-0.04144381 0.11656 0.98600203 4279110925
-0.033737142 0.11620572 0.98314273 4278979596
-0.026160002 0.11549714 0.97948354 4278979596
-0.018571429 0.11514286 0.97673506 4279045138
-0.011177143 0.11514286 0.97588056 4278979346
-0.0037066669 0.11455239 0.97428805 4279045394
0.0036838097 0.1141981 0.97108555 4279045394
0.011017144 0.11384381 0.96890295 4279110930
0.018323811 0.11360763 0.96706188 4279241747
0.025573334 0.11325334 0.96603495 4278979600
0.032777142 0.11289905 0.96236426 4278979346
0.039851431 0.11266286 0.96039146 4279045133
0.047245715 0.11266286 0.95931113 4279307789
0.054514285 0.11266286 0.95823032 4279111182
0.061394289 0.11230858 0.95576477 4279045139
0.068617143 0.11195429 0.95329076 4279045138
0.075680003 0.1117181 0.95128506 4279110932
0.082186669 0.11100953 0.94694382 4278979858
0.089047626 0.11041906 0.94443274 4278979346
0.095965713 0.11018286 0.94144964 4279175954
0.10274286 0.11018286 0.93894202 4279044883
0.10959239 0.10959239 0.9362213 4279110930
0.11628572 0.1090019 0.93339163 4279045395
0.12306666 0.1090019 0.93125635 4278980110
0.12967619 0.1090019 0.929658 4278979602
0.13668571 0.1090019 0.92807263 4279045139
0.14369524 0.10864762 0.92565382 4279045396
0.15037715 0.10841144 0.92409492 4279241747
0.15737143 0.10841144 0.92198056 4279110930
0.16382857 0.10805714 0.91959828 4279110931
0.16949335 0.10746667 0.91666549 4279110932
0.17641144 0.10723048 0.91523623 4279111188
0.18292572 0.10723048 0.9132461 4279110932
0.18878095 0.10699429 0.91122061 4279111188
0.19564572 0.10640381 0.90886337 4279176211
0.20251048 0.10640381 0.9067961 4279241748
0.20774859 0.10581334 0.90379947 4279111182
0.21384001 0.10557714 0.90175015 4279110676
0.22062857 0.10522286 0.89942831 4279044883
0.22741716 0.10522286 0.89803761 4279045394
0.23368001 0.10522286 0.89665926 4278979858
0.23991238 0.10475048 0.89474571 4279045133
0.24528 0.10416 0.89237487 4279110420
0.2514286 0.10416 0.89037734 4278979346
0.25813335 0.10416 0.88916647 4278979346
0.2648381 0.10392382 0.88761377 4278979346
0.27000004 0.10333334 0.88616288 4278979346
0.2760343 0.10309715 0.88494194 4278979346
0.28268573 0.10309715 0.88416356 4278848274
0.28933716 0.10309715 0.88336539 4278979346
0.29432574 0.10262477 0.88187933 4278979346
0.30056 0.10238858 0.88033307 4278782994
0.30716574 0.10238858 0.87947029 4278979346
0.31268573 0.1017981 0.87858766 4278979346
0.31705144 0.10132572 0.8763805 4278979346
0.32358858 0.10132572 0.875081 4278979346
0.32935622 0.10108953 0.87376595 4278782994
0.33391619 0.10049905 0.87183738 4278782738
0.33960003 0.10026286 0.87050843 4278979346
0.34606859 0.10026286 0.86957896 4278848274
0.35170668 0.10026286 0.86863613 4278979346
0.35731432 0.099790484 0.86731315 4278782482
0.36289144 0.099554293 0.86663359 4278782224
0.36843809 0.099318095 0.86553305 4278782736
0.37484571 0.099318095 0.86518079 4278913554
0.38034669 0.099081904 0.86440408 4278979346
0.38581714 0.098609529 0.86400068 4278847760
0.39032003 0.098373339 0.86231667 4278847762
0.39571428 0.098373339 0.86184907 4278979346
0.40301335 0.098373339 0.86134714 4279241235
0.40679428 0.098137148 0.86037499 4278388501
0.57939428 0.13489714 1.1546918 4291941578
0.58823997 0.13710858 1.155466 4291678924
0.59708571 0.13710858 1.1562448 4291679182
0.60593146 0.13710858 1.1570283 4291678157
0.61689526 0.13758096 1.1584711 4291678412
0.62577146 0.13758096 1.1592557 4291744718
0.63464767 0.13758096 1.1595316 4291679184
nan nan 1.162372 13094088
nan nan 1.1626652 13029063
nan nan 1.1629757 13159883
nan nan 1.1633047 12831684
nan nan 1.163654 12896450
nan nan 1.1640259 13095110
nan nan 1.1644223 12897479
nan nan 1.1648455 13027525
nan nan 1.1326711 1186575
nan nan 1.13116 1317657
-0.64389718 0.13753144 1.0869635 4281218595
-0.635562 0.13702857 1.0863094 4281547301
-0.62722671 0.13702857 1.0863949 4282993455
-0.61907238 0.13702857 1.0864748 4283848780
-0.60704011 0.13627429 1.0861099 4284769879
-0.60417145 0.13702857 1.0866197 4285822559
-0.59596956 0.13702857 1.0872383 4286612088
-0.59133524 0.13782857 1.0876865 4287400571
-0.57718098 0.13627429 1.0868065 4288059787
-0.56987435 0.13665144 1.0873425 4288257672
-0.56208187 0.13665144 1.0873731 4289045394
-0.55488765 0.13702857 1.0874025 4289505435
-0.54387432 0.13627429 1.0867097 4289704096
-0.53565717 0.13665144 1.0867679 4289507230
-0.53004193 0.13702857 1.0876832 4289507235
-0.52408576 0.13680953 1.0882121 4290296239
-0.5107429 0.13665144 1.0877358 4290362542
-0.50243807 0.13665144 1.0879544 4290691507
-0.49554291 0.13627429 1.0878952 4290954426
-0.48521909 0.13627429 1.0878466 4290888637
-0.47696003 0.13627429 1.0883203 4290691509
-0.4679276 0.13627429 1.0885276 4291020470
-0.45964569 0.13627429 1.0884771 4291152056
-0.45011815 0.13577144 1.0886807 4290625462
-0.4418591 0.13539429 1.0882546 4289901735
-0.43360004 0.13577144 1.0890783 4288257692
-0.42651808 0.13627429 1.0892725 4284838251
-0.41708192 0.13577144 1.0894639 4280299051
-0.40882289 0.13420953 1.0896524 4279769376
-0.39702857 0.13214478 1.0890282 4280360997
-0.38977143 0.13334286 1.087582 4280754973
-0.32765713 0.13214478 1.0891278 4280228884
-0.32243809 0.11740952 0.92610258 4280754725
-0.31542858 0.11740952 0.92586261 4280820267
-0.30590859 0.11565714 0.92707378 4280624933
-0.29952383 0.11603429 0.92873335 4280363038
-0.29247624 0.11628572 0.93022305 4280624421
-0.28635427 0.11628572 0.93141228 4280756007
-0.27988574 0.11666286 0.93300116 4280887593
-0.27280003 0.11691429 0.93442047 4280756006
-0.26657143 0.11691429 0.93683827 4280756006
-0.25946286 0.11729144 0.9379468 4280690215
-0.25235429 0.11729144 0.93904418 4280756256
-0.24655999 0.11729144 0.94121689 4280756512
-0.23941334 0.11754286 0.94235015 4280231452
-0.2327619 0.11754286 0.94512993 4279903000
-0.22632 0.11817144 0.94736743 4279966491
-0.21913524 0.11854857 0.95014048 4279440405
-0.2130743 0.11854857 0.95288658 4279440147
-0.20650285 0.11917715 0.95663601 4279571219
-0.19925714 0.11955429 0.95772165 4279440147
-0.19261716 0.11955429 0.95880425 4279505940
-0.18573715 0.11993144 0.96135581 4279505939
-0.17901334 0.12018286 0.96334672 4279505940
-0.17260191 0.12056001 0.96707255 4279571989
-0.16628572 0.12118858 0.97012079 4279637781
-0.15889525 0.12194286 0.97215879 4279703568
-0.15150476 0.12194286 0.97293884 4279637526
-0.14456001 0.12194286 0.97370851 4279703318
-0.13742857 0.12232 0.97495407 4279703319
-0.12973334 0.12232 0.97512043 4279571731
-0.12194286 0.12194286 0.9742375 4280755998
-0.11490668 0.12194286 0.97441185 4280424978
-0.12318095 0.13804762 1.0991498 4293521879
-0.11468571 0.14017144 1.09919 4293191133
-0.10619047 0.14017144 1.0992302 4292994268
-0.099550486 0.13804762 1.0980121 4293388767
-0.079599999 0.12433143 0.9865458 4278190874
-0.072019048 0.12470857 0.98953396 4278585871
-0.064243808 0.12470857 0.98957115 4279176462
-0.056514286 0.12433143 0.98960853 4278979596
-0.048979048 0.12433143 0.98679513 4278979596
-0.041360002 0.12408001 0.98498559 4278979596
-0.033737142 0.12332572 0.98230034 4278848268
-0.026160002 0.12294858 0.9788087 4278979344
-0.018628573 0.12257142 0.97710514 4278979596
-0.011177143 0.12294858 0.97629362 4278914060
-0.0037142858 0.12232 0.97443861 4279044876
0.0036952381 0.12194286 0.97175086 4278979602
0.011051429 0.12194286 0.97081918 4278979344
0.018361906 0.12118858 0.96870351 4278979344
0.025573334 0.12093715 0.96569026 4278979596
0.032880001 0.12056001 0.96340561 4278979340
0.040060956 0.11993144 0.96106845 4278979596
0.047245715 0.11955429 0.9591307 4278979596
0.054342858 0.11955429 0.95673138 4278979344
0.06158857 0.11955429 0.95565629 4278979340
0.068617143 0.11917715 0.95324278 4278979344
0.075680003 0.11892571 0.95128036 4278979346
0.082624763 0.11854857 0.94839072 4278979341
0.089333333 0.11792 0.94546407 4278979596
0.096171431 0.11792 0.94297469 4278979344
0.10329524 0.11754286 0.94003612 4278979346
0.10982858 0.11691429 0.93756342 4278979346
0.11628572 0.11628572 0.93438315 4278848016
0.12333335 0.11628572 0.93202031 4278979602
0.13038096 0.11628572 0.93042964 4278979346
0.13742858 0.11628572 0.92885 4279045138
0.14416382 0.11603429 0.92728138 4278979346
0.15070477 0.11565714 0.92432439 4278979346
0.15771429 0.11540572 0.92278284 4278979852
0.16436572 0.11540572 0.92069203 4278979603
0.17042668 0.11477715 0.91834348 4278979602
0.1768 0.1144 0.91546673 4279045138
0.18373333 0.1144 0.91405922 4278979348
0.19024763 0.11414858 0.91204321 4278979344
0.19608001 0.11389714 0.90999818 4278979346
0.20251048 0.11326858 0.90762591 4279110163
0.20867811 0.11326858 0.90555406 4278979346
0.21504 0.11289144 0.90318102 4278979346
0.22186667 0.11264 0.90174192 4278979602
0.22818287 0.11238858 0.899122 4278979600
0.23420572 0.11201143 0.89686179 4278979596
0.24045335 0.11176001 0.89549863 4278782736
0.24667047 0.11176001 0.89362019 4278979346
0.252 0.11125715 0.89131278 4278848274
0.25872001 0.11088 0.88937521 4278979346
0.26544002 0.11088 0.88818938 4278979346
0.27000004 0.11062858 0.88668007 4278979346
0.2766667 0.11000001 0.88563401 4278979600
0.28333336 0.11000001 0.88439488 4278979346
0.29000002 0.11000001 0.88360167 4279045133
0.29598856 0.10974857 0.88246042 4279241490
0.30194667 0.10974857 0.88162524 4279044883
0.30787429 0.10924571 0.8800841 4279045139
0.31377146 0.10861715 0.87885284 4278979597
0.31852955 0.10861715 0.87741232 4278979600
0.32434285 0.10836571 0.87613016 4279044883
0.33012572 0.10786286 0.87482947 4279045138
0.3358781 0.10761144 0.87351382 4279044882
0.34040001 0.10698286 0.87180489 4278979346
0.34648001 0.10698286 0.87028319 4279241491
0.35336763 0.10698286 0.86933613 4279110675
0.35816002 0.10648001 0.86801207 4279045139
0.36375237 0.10648001 0.8673448 4279045139
0.36931431 0.10622857 0.86664647 4279241739
0.37484571 0.10597715 0.86591524 4279045139
0.38125333 0.10572571 0.86514926 4279175954
0.38581714 0.10522286 0.86434627 4279044883
0.39125714 0.10497143 0.86308074 4278781968
0.39666671 0.10472 0.86218905 4278781968
0.40301335 0.10472 0.8616938 4278978832
0.40679428 0.10472 0.86116064 4278192654
0.57939428 0.14374286 1.1552643 4292665046
0.58823997 0.14595428 1.1560355 4292270549
0.59708571 0.14595428 1.1568106 4292205523
0.60801905 0.14645715 1.158249 4292073427
