# .PCD v0.7 - Point Cloud Data file format
VERSION 0.7
FIELDS x y z rgba
SIZE 4 4 4 4
TYPE F F F U
COUNT 1 1 1 1
WIDTH 1111
HEIGHT 1
VIEWPOINT 0 0 0 1 0 0 0
POINTS 1111
DATA ascii
0.080171429 0.10841144 0.91877049 4292730329
0.08742857 0.10841144 0.9195317 4292729817
0.094422862 0.10841144 0.92029482 4292597977
0.10141715 0.10841144 0.92106009 4292598488
0.10864762 0.10841144 0.92203605 4292663768
0.11565714 0.10864762 0.92310739 4292532695
0.12306666 0.1090019 0.92387497 4292335573
0.13038096 0.1090019 0.92483574 4292335062
0.13742858 0.1092381 0.92560202 4292204502
0.14447621 0.1092381 0.92636818 4292335829
0.15152381 0.1092381 0.92713469 4292269525
0.15908572 0.10959239 0.92820805 4292269779
0.16615619 0.10959239 0.92918634 4292335573
0.17322667 0.10959239 0.92974335 4292269269
0.18068573 0.10982858 0.93072039 4292138197
0.18878096 0.11018286 0.9319973 4292269524
0.19653334 0.11041906 0.93309903 4292072403
0.20302857 0.11041906 0.93385237 4292072403
0.21082668 0.11077333 0.93460929 4292072147
0.21797334 0.11077333 0.93536943 4292072149
0.22560002 0.11100953 0.93640685 4292334546
0.2327619 0.11100953 0.93717909 4292071889
0.23992382 0.11100953 0.93795383 4291940560
0.24708572 0.11100953 0.93873149 4291743694
0.25424764 0.11100953 0.93995041 4291874509
0.26224384 0.11136381 0.94073623 4291808715
0.26942855 0.11136381 0.94152391 4291808461
0.27808002 0.11195429 0.94306099 4291808975
0.28530288 0.11195429 0.94384921 4290361785
0.29252574 0.11195429 0.94463718 4289045412
0.2997486 0.11195429 0.94521475 4289769389
0.30697146 0.11195429 0.94580275 4290427066
0.31419429 0.11195429 0.94640154 4289244076
0.32141718 0.11195429 0.94701147 4288519066
0.32968 0.11230858 0.94812489 4288650406
0.33692572 0.11195429 0.94876462 4288914328
0.34308574 0.11195429 0.94891042 4287532173
0.35141715 0.11230858 0.95007807 4286479228
0.35866287 0.11230858 0.9507525 4285099887
0.36590856 0.11230858 0.9514392 4283914843
0.37315428 0.11230858 0.95213819 4283651660
0.3804 0.11230858 0.95285034 4284308066
0.38886857 0.11266286 0.95409483 4284901737
0.39613718 0.11266286 0.95483249 4290428610
0.40425146 0.11266286 0.9559235 4290427838
0.41282669 0.11289905 0.95680147 4290558912
0.42013335 0.11325334 0.95719039 4290493121
0.42877716 0.11360763 0.95811725 4290295999
0.43474671 0.11325334 0.9580251 4288584858
0.44343621 0.11325334 0.95900524 4288717984
0.45076576 0.11360763 0.95948255 4289376940
0.45809525 0.11360763 0.9599843 4290032307
0.4663924 0.11360763 0.96087354 4290097843
0.47373715 0.11384381 0.96143329 4290163892
0.4810819 0.11384381 0.96202385 4290427064
0.48994669 0.1141981 0.9631933 4290164407
0.49731433 0.1141981 0.96385604 4289704106
0.50468189 0.1141981 0.96509606 4288916142
0.51522672 0.11455239 0.96636647 4289309867
0.52102858 0.11490668 0.96715456 4289572016
0.52657145 0.11490668 0.96737415 4289571245
nan nan 1.0050176 11250092
nan nan 1.0056015 11579055
nan nan 1.0062222 11710382
nan nan 1.0068834 11252402
nan nan 1.0075886 10988460
nan nan 1.0083427 10724257
nan nan 1.0091512 11316135
nan nan 1.0100198 10790824
nan nan 1.0348358 10001480
-0.51510859 0.10861715 0.87420291 4288454975
-0.50899047 0.10836571 0.87455291 4288257339
-0.50406474 0.10861715 0.87513041 4288652097
-0.49988192 0.10861715 0.87573749 4288717636
-0.49326095 0.10899429 0.876248 4287665202
-0.48664001 0.10924571 0.87660712 4288782397
-0.48001906 0.10924571 0.87694252 4288980548
-0.47448766 0.10949715 0.877379 4288914245
-0.46785143 0.10924571 0.87767345 4288651074
-0.46121526 0.10949715 0.87795001 4288848698
-0.45562288 0.10949715 0.87832922 4289046077
-0.44897145 0.10974857 0.87857461 4289046341
-0.44231999 0.10974857 0.87880635 4285759281
-0.4366667 0.10974857 0.87902564 4288585013
-0.42901716 0.10974857 0.87923342 4288520521
-0.42236573 0.10974857 0.87973726 4287859498
-0.41571429 0.10974857 0.88022965 4286480426
-0.41000003 0.11000001 0.88082951 4286019622
-0.40471619 0.11037715 0.88154924 4286414904
-0.39893335 0.11037715 0.88218981 4286016788
-0.3922286 0.11037715 0.8826502 4285492510
-0.38639998 0.11062858 0.88328338 4285492244
-0.37968001 0.11088 0.88372612 4288320789
-0.37296 0.11088 0.88415879 4289769271
-0.36748573 0.11088 0.8845818 4289900092
-0.36074287 0.11125715 0.88529146 4289769276
-0.354 0.11125715 0.88569885 4289900601
-0.34804189 0.11125715 0.88609701 4289966396
-0.34128383 0.11125715 0.88669246 4290031936
-0.33528003 0.11150857 0.88707459 4290163514
-0.32850671 0.11150857 0.88771844 4289966652
-0.32173333 0.11176001 0.88815051 4290163519
-0.31566858 0.11176001 0.8885814 4290295099
-0.30888 0.11201143 0.88923317 4290295614
-0.30209145 0.11201143 0.88966298 4290426942
-0.29530287 0.11201143 0.89009118 4290427198
-0.28948572 0.11238858 0.8908627 4290492734
-0.28267428 0.11238858 0.89128906 4290558784
-0.27648002 0.11238858 0.89171332 4290755393
-0.26965335 0.11264 0.89237052 4290821439
-0.26341334 0.11264 0.8930279 4290821439
-0.25742859 0.11289144 0.89344633 4290821439
-0.25056383 0.11326858 0.8942194 4290887739
-0.24369904 0.11326858 0.8946318 4290887741
-0.23736002 0.11326858 0.8950417 4290755903
-0.23048002 0.11326858 0.8953414 4290558782
-0.22360002 0.11326858 0.89588046 4290362179
-0.21624 0.11326858 0.89594066 4285494289
-0.20984001 0.11352 0.89648026 4291546056
-0.20296001 0.11352 0.89677966 4291348680
-0.19564572 0.11289144 0.89683825 4291677643
-0.18773334 0.11238858 0.89653951 4291283142
-0.18050288 0.11238858 0.89660037 4291480009
-0.17738287 0.11477715 0.89918762 4281480244
-0.16818668 0.11289144 0.8991183 4281546030
-0.15917334 0.11176001 0.89690518 4293190874
-0.15274286 0.11176001 0.89720505 4292861910
-0.14595428 0.11201143 0.8977415 4293125083
-0.1396343 0.11238858 0.89839661 4293190877
-0.13282286 0.11238858 0.89869714 4293190878
-0.12601143 0.11238858 0.89908218 4293256670
-0.1192 0.11238858 0.8994683 4293256670
-0.11264 0.11238858 0.90009886 4293388256
-0.10581334 0.11264 0.90048867 4293125076
-0.099207625 0.11264 0.90112627 4293191134
-0.092674285 0.11289144 0.90151906 4292599002
-0.085809529 0.11289144 0.90228611 4292205011
-0.078944758 0.11289144 0.90293038 4291743949
-0.071840003 0.11264 0.90244871 4293585120
-0.064853333 0.11264 0.90284276 4293782505
-0.058026668 0.11264 0.90323746 4289045412
-0.051314291 0.11264 0.903633 4292137683
-0.044472381 0.11289144 0.90428323 4287601053
-0.037630476 0.11264 0.90468013 4293453543
-0.030960003 0.11289144 0.90545458 4291742415
-0.024080003 0.11352 0.90634692 4293059298
-0.017257143 0.11352 0.90737128 4293125090
-0.010354285 0.11389714 0.90802115 4293124578
-0.0034514286 0.11389714 0.90867174 4292993248
0.0034590478 0.11389714 0.90957773 4292861918
0.010377144 0.11414858 0.91023064 4292861662
0.017295239 0.11414858 0.91088372 4292927711
0.024213335 0.11414858 0.91153693 4292927712
0.031131431 0.11414858 0.91219068 4292927197
0.038049527 0.11414858 0.91309375 4292730332
0.045066666 0.1144 0.913746 4292796124
0.052000001 0.1144 0.91475749 4292861917
0.059127621 0.11477715 0.9154045 4291281855
0.066228569 0.11502858 0.91627848 4290887357
0.073200002 0.11502858 0.91691947 4290100914
0.080171429 0.11502858 0.91767782 4291545530
0.08742857 0.11540572 0.91877151 4290691243
0.094114281 0.11502858 0.91920173 4290624686
0.10141715 0.11540572 0.92030162 4289307814
0.10841144 0.11540572 0.92128599 4289569961
0.11565714 0.11565714 0.92205417 4288913554
0.12306666 0.11565714 0.92313588 4292269779
0.13038096 0.11628572 0.92410314 4292532182
0.13742858 0.11628572 0.92486715 4292466389
0.14447621 0.11628572 0.92563087 4292531924
0.15152381 0.11628572 0.92639434 4292203987
0.15908572 0.11666286 0.92746568 4292072143
0.16615619 0.11666286 0.92822927 4292005838
0.17322667 0.11666286 0.92899239 4291808459
0.18029715 0.11666286 0.9297542 4292072147
0.18837714 0.11666286 0.93100977 4292006610
0.19548573 0.11729144 0.9319731 4291940563
0.20302857 0.11754286 0.93271065 4291875026
0.21082668 0.11754286 0.93383849 4291940305
0.21797334 0.11792 0.93459332 4285034104
0.22560002 0.11817144 0.93562537 4284111964
0.2327619 0.11817144 0.9363907 4283519569
0.23992382 0.11817144 0.9371587 4284504924
0.24708572 0.11817144 0.93792897 4284243027
0.25424764 0.11817144 0.93914157 4283387728
0.26224384 0.11854857 0.93991935 4283849556
0.26942855 0.11854857 0.94069856 4284506709
0.27749333 0.11892571 0.94192845 4283716180
0.28530288 0.11892571 0.94301039 4284636764
0.29252574 0.11917715 0.94378918 4284046679
0.29911619 0.11892571 0.9440574 4283323737
0.30697146 0.11892571 0.94494885 4285624173
0.31419429 0.11917715 0.94554442 4283454797
0.32141718 0.11917715 0.94615102 4284770161
0.32864001 0.11917715 0.94676858 4285626731
0.33586287 0.11917715 0.94739771 4283586664
0.34308574 0.11917715 0.94803876 4284045650
0.35141715 0.11955429 0.94920951 4283979605
0.35866287 0.11955429 0.94988 4284440917
0.36590856 0.11955429 0.95056236 4284111456
0.37315428 0.11955429 0.95125723 4284045655
0.3804 0.11955429 0.95196474 4284900451
0.38886857 0.11955429 0.953215 4284309856
0.39489144 0.11955429 0.95394826 4290099129
0.40425146 0.11955429 0.95504296 4290559425
0.41282669 0.12018286 0.95593524 4290428352
0.42013335 0.12056001 0.95632553 4290493632
0.42744002 0.12093715 0.95726877 4290361793
0.43474671 0.12056001 0.95716274 4289375142
0.44205338 0.12056001 0.95761222 4288848286
0.45076576 0.12093715 0.9586392 4288650924
0.45809525 0.12093715 0.9591428 4288784036
0.46542481 0.12093715 0.95967287 4288257178
0.47373715 0.12093715 0.96060807 4288651421
0.4810819 0.12118858 0.96120083 4288914590
0.48842669 0.12118858 0.96182704 4289376945
0.49577141 0.12118858 0.96248937 4287930007
0.50311619 0.12118858 0.96319109 4288388774
0.51363808 0.12156572 0.96507066 4288192933
0.52102858 0.12194286 0.9658637 4288981932
0.52494293 0.12194286 0.96608168 4288651683
nan nan 1.0051976 7305585
nan nan 1.0057833 10333103
nan nan 1.0064056 8751489
nan nan 1.0070684 10461605
nan nan 1.0077751 8225922
nan nan 1.0085304 9211790
nan nan 1.0093396 10132122
nan nan 1.0102086 10001315
nan nan 1.0355666 8224556
-0.5127238 0.11466667 0.87325674 4285296922
-0.50899047 0.11466667 0.87373942 4287138093
-0.50358856 0.11493334 0.87432581 4284510478
-0.49873146 0.11520001 0.87494433 4287931190
-0.49212575 0.11520001 0.87533033 4285103142
-0.48664001 0.1156 0.87582177 4284048644
-0.48001906 0.1156 0.87615758 4285295639
-0.47339812 0.11586667 0.87647176 4285430569
-0.46785143 0.11586667 0.87676632 4284377873
-0.46121526 0.11613334 0.87717122 4285297691
-0.45562288 0.11613334 0.87755591 4286743336
-0.44897145 0.1164 0.87780112 4287665714
-0.44231999 0.1164 0.87803257 4285888293
-0.43566859 0.1164 0.87825137 4288057395
-0.42901716 0.1164 0.87845886 4287994431
-0.42236573 0.11613334 0.87896121 4286877755
-0.41571429 0.11613334 0.87945217 4287730481
-0.41000003 0.1164 0.88005465 4288916023
-0.40333337 0.11666667 0.88052446 4288718901
-0.39802667 0.11666667 0.88123608 4289111870
-0.3922286 0.11706667 0.8816902 4289243448
-0.38552383 0.11733334 0.88231319 4289309758
-0.37968001 0.11733334 0.88293511 4289506366
-0.37296 0.1176 0.88336468 4289769020
-0.36623999 0.1176 0.88378429 4289769024
-0.36074287 0.11800001 0.88448888 4289769282
-0.354 0.11800001 0.88489252 4289834810
-0.34725717 0.11800001 0.88528723 4289900601
-0.34128383 0.11800001 0.88567293 4289900858
-0.33452573 0.11826666 0.88625604 4289966652
-0.32776761 0.11826666 0.88668323 4290163260
-0.32173333 0.11826666 0.88732332 4290163521
-0.31496 0.11853334 0.88775003 4290229311
-0.30888 0.11853334 0.88839662 4290230077
-0.30209145 0.11880001 0.8888222 4290295359
-0.29530287 0.11880001 0.88924605 4290492481
-0.28948572 0.11880001 0.88966817 4290492996
-0.28267428 0.1192 0.89043373 4290624066
-0.27586287 0.1192 0.89085346 4290689856
-0.26905146 0.1192 0.89127135 4290821686
-0.26282668 0.11946667 0.89192152 4290821691
-0.25657144 0.11973334 0.89257175 4290821690
-0.25056383 0.11973334 0.89334065 4290821948
-0.24369904 0.12013333 0.89374834 4290887235
-0.23683429 0.11973334 0.89379835 4290755904
-0.22996952 0.11973334 0.89409596 4290493248
-0.22310477 0.11973334 0.89475107 4290296383
-0.21624 0.12013333 0.89504957 4285822731
-0.20984001 0.1204 0.89558959 4291481797
-0.20296001 0.12013333 0.89588815 4291282886
-0.19564572 0.11946667 0.8959443 4291808460
-0.18773334 0.1192 0.89564139 4291151556
-0.18050288 0.1192 0.89570022 4291808715
-0.17738287 0.12090286 0.89830637 4281414448
-0.16632 0.1196 0.89823127 4281546543
-0.15917334 0.11826666 0.89599884 4293256666
-0.1524 0.11826666 0.8962965 4292862424
-0.14562666 0.11853334 0.89659488 4293125082
-0.13916571 0.11880001 0.89713055 4293125084
-0.13282286 0.11880001 0.8974297 4293190620
-0.12601143 0.11880001 0.89781183 4293256156
-0.1192 0.11880001 0.89855957 4293321949
-0.11264 0.1192 0.89894795 4293322462
-0.10581334 0.11946667 0.89958483 4293059025
-0.099207625 0.11946667 0.89997697 4293256669
-0.092365719 0.11946667 0.90062129 4292598742
-0.085809529 0.11973334 0.90139514 4291941841
-0.079120003 0.12013333 0.90204561 4291612106
-0.071680002 0.11946667 0.90155202 4292927452
-0.064853333 0.1192 0.90168995 4293650918
-0.058026668 0.1192 0.90234369 4289967027
-0.051314291 0.11946667 0.90299833 4292004555
-0.044472381 0.11973334 0.90339619 4287007386
-0.037630476 0.11973334 0.90379441 4293387751
-0.03089143 0.11973334 0.90457773 4292269254
-0.024080003 0.12013333 0.90547913 4292993249
-0.017257143 0.12013333 0.90612751 4292861919
-0.010354285 0.1204 0.90716946 4292796126
-0.0034514286 0.1208 0.90782344 4292992735
0.0034514286 0.1208 0.90847808 4293190366
0.010354285 0.1208 0.90913343 4292992987
0.017295239 0.12106667 0.910052 4292795608
0.024213335 0.12106667 0.91070837 4292795865
0.031131431 0.12106667 0.91136491 4292663509
0.038049527 0.12106667 0.91202146 4292466893
0.044967622 0.12106667 0.91293299 4291677125
0.051885717 0.12133333 0.91358751 4291085490
0.058933333 0.12133333 0.914608 4290558637
0.066228569 0.12173334 0.91549212 4290031516
0.073200002 0.122 0.91613519 4288516507
0.080171429 0.122 0.9168961 4287664772
0.087142855 0.122 0.91765904 4285099115
0.094114281 0.122 0.91842395 4285232755
0.10108571 0.122 0.91919094 4284836965
0.10841144 0.1224 0.92030537 4286152049
0.11565714 0.1224 0.92129791 4283125832
0.12306666 0.12266667 0.92239028 4284375125
0.13009904 0.12306666 0.92315602 4284571990
0.13713144 0.12306666 0.92392164 4284900957
0.14447621 0.12333335 0.92488772 4283782223
0.15152381 0.12333335 0.92564869 4284109646
0.15857144 0.12333335 0.92640877 4285097314
0.16615619 0.12373333 0.9274776 4285098337
0.17322667 0.12373333 0.92823631 4284636755
0.18068573 0.12373333 0.9292044 4291874766
0.18837714 0.12400001 0.93024606 4291940817
0.19548573 0.12440001 0.93096751 4291875538
0.20302857 0.12440001 0.93193871 4291875281
0.2101524 0.12466668 0.93267512 4292006358
0.21797334 0.12506667 0.93381095 4284965462
0.22512001 0.12506667 0.93456298 4286806133
0.2327619 0.12506667 0.93559694 4285560161
0.23992382 0.12533334 0.93635809 4284505432
0.24708572 0.12533334 0.93712145 4284177237
0.25424764 0.12533334 0.93832707 4283519565
0.26224384 0.12573333 0.93909699 4284243032
0.26942855 0.12573333 0.93986791 4284835419
0.27661332 0.12573333 0.94063985 4284045656
0.28470096 0.12613334 0.94216532 4288191118
0.29190856 0.12613334 0.94263375 4283980885
0.29816765 0.12573333 0.94274056 4286020714
0.30632383 0.12573333 0.94377387 4287136652
0.31419429 0.12640001 0.94468153 4283454541
0.32141718 0.12640001 0.94528472 4286150780
0.32864001 0.12640001 0.94589919 4285888370
0.33586287 0.12640001 0.94652474 4286151029
0.34308574 0.12640001 0.94716185 4284638568
0.3503086 0.12640001 0.94781101 4284179553
0.35866287 0.1268 0.94900107 4285429108
0.36590856 0.1268 0.94967967 4283980891
0.37315428 0.1268 0.95037019 4283981398
0.3804 0.1268 0.95107323 4287006853
0.38764572 0.1268 0.95178914 4283979867
0.39613718 0.12720001 0.95305705 4288981156
0.40425146 0.12720001 0.95415449 4290624959
0.41153523 0.12746668 0.95452148 4290558912
0.41881904 0.12746668 0.95490539 4290427838
0.42610288 0.12786667 0.95586151 4290362303
0.43474671 0.12786667 0.95629132 4290164925
0.44067049 0.12746668 0.95674241 4290427579
0.4479543 0.12746668 0.95721644 4290558652
0.45666668 0.12786667 0.95829135 4290426809
0.46542481 0.12826668 0.9588235 4289637551
0.4727543 0.12826668 0.95938408 4289835444
0.48008385 0.12826668 0.95997572 4289966514
0.48741335 0.12826668 0.96060097 4289769637
0.49577141 0.12826668 0.96166098 4289901234
0.50311619 0.12853333 0.96236557 4289243562
0.51046097 0.12853333 0.96311307 4289242788
0.51941717 0.12893334 0.96450371 4288257178
0.5233143 0.12853333 0.96471947 4288191899
nan nan 1.0053824 11644337
nan nan 1.0059702 11382187
nan nan 1.0065943 10986918
nan nan 1.0072582 10723230
nan nan 1.0079664 9475212
nan nan 1.0087227 9935506
nan nan 1.0095327 8358782
nan nan 1.0104022 8291715
nan nan 1.0363199 9147961
-0.51391625 0.12150095 0.87243849 4288520772
-0.50899047 0.12150095 0.87292314 4288389439
-0.50358856 0.12150095 0.87351793 4287930163
-0.49865142 0.12178285 0.87393403 4288586810
-0.49047431 0.12178285 0.87432069 4288389947
-0.48552001 0.12178285 0.87489486 4288586561
-0.47891429 0.12220572 0.87523127 4288586559
-0.47339812 0.12220572 0.87568372 4288652351
-0.46677715 0.12248762 0.87597853 4288586816
-0.46121526 0.12276953 0.87638897 4288915269
-0.45457906 0.12276953 0.87664938 4289045827
-0.44794288 0.12276953 0.87689477 4289045833
-0.44231999 0.12276953 0.87712663 4289111887
-0.43566859 0.12276953 0.87734586 4289045841
-0.42901716 0.12276953 0.87768084 4288914774
-0.42236573 0.12305143 0.87818235 4288914524
-0.41571429 0.12276953 0.878672 4288915036
-0.40906286 0.12305143 0.87915051 4288980322
-0.40333337 0.12305143 0.87974507 4288783204
-0.39802667 0.12305143 0.88020223 4288914532
-0.39133716 0.12333335 0.8809045 4288915054
-0.38552383 0.12375619 0.88152325 4288783472
-0.37881905 0.1240381 0.88195723 4288849012
-0.37296 0.12432001 0.88256747 4289242740
-0.36623999 0.12432001 0.88298416 4289243253
-0.35951999 0.12432001 0.88339126 4289374847
-0.35280001 0.12432001 0.8837893 4289505924
-0.34725717 0.12432001 0.88447452 4289637253
-0.3405143 0.12474287 0.88485688 4289571203
-0.33452573 0.12474287 0.88523072 4289703046
-0.32776761 0.12474287 0.88565129 4289703055
-0.32173333 0.12474287 0.88628036 4289571478
-0.31566858 0.12530667 0.8869155 4289571480
-0.30888 0.12530667 0.88755631 4289505951
-0.30141333 0.12530667 0.88775671 4289440421
-0.29530287 0.12530667 0.88839751 4289572513
-0.28851429 0.12558858 0.88881546 4289900966
-0.28267428 0.12558858 0.88923168 4288455531
-0.27586287 0.12601143 0.88998955 4290624068
-0.26905146 0.12601143 0.89040303 4290690113
-0.26282668 0.12629333 0.89104736 4290690624
-0.25600001 0.12629333 0.89145666 4290821696
-0.24972953 0.12629333 0.89209849 4290821698
-0.24288763 0.12657525 0.89250296 4290821698
-0.23604573 0.12657525 0.89290482 4290625087
-0.22996952 0.12657525 0.89320123 4290493247
-0.22310477 0.1269981 0.89385498 4290296383
-0.21624 0.1269981 0.89415252 4286546965
-0.20984001 0.1269981 0.89469188 4291481797
-0.20251048 0.1269981 0.89474738 4291217351
-0.1949943 0.12629333 0.89468324 4291480007
-0.18731429 0.12601143 0.8947404 4291151813
-0.18050288 0.12601143 0.8947981 4291940301
-0.17738287 0.12695047 0.89741319 4280954671
-0.16688001 0.12653333 0.89733398 4281479984
-0.15881525 0.12502477 0.89485824 4293321943
-0.15205714 0.12502477 0.89515382 4292796374
-0.14529906 0.12502477 0.89545006 4292993751
-0.13916571 0.12558858 0.89621931 4292993755
-0.13237715 0.12530667 0.89628023 4293125084
-0.12558858 0.12530667 0.89689994 4293190620
-0.1192 0.12558858 0.89728427 4293190877
-0.11238858 0.12601143 0.8980391 4293322206
-0.10581334 0.12601143 0.89867908 4292796368
-0.09898667 0.12629333 0.89907265 4292993501
-0.092160001 0.12629333 0.89946687 4292533204
-0.085809529 0.12629333 0.90011698 4291875789
-0.078944758 0.12657525 0.90089864 4291481032
-0.071680002 0.12629333 0.90065348 4292926942
-0.064708568 0.12601143 0.90079069 4293519585
-0.058026668 0.12601143 0.90118724 4290559164
-0.051200002 0.12629333 0.90184605 4290817977
-0.044620954 0.12657525 0.90250629 4287005842
-0.037630476 0.12629333 0.90290618 4293256679
-0.030788574 0.12629333 0.90330648 4291740847
-0.023946667 0.12657525 0.90394688 4293058782
-0.017200001 0.1269981 0.9049921 4292730333
-0.01032 0.12728001 0.90591156 4292729821
-0.0034400001 0.12728001 0.90656602 4291084995
0.0034400001 0.12728001 0.90722179 4287072129
0.01032 0.12728001 0.90828609 4286479725
0.017257143 0.12770285 0.90894532 4285426012
0.02416 0.12770285 0.90960515 4284307800
0.031062858 0.12770285 0.91053307 4283913549
0.038049527 0.12798476 0.91119283 4284704607
0.044967622 0.12798476 0.91185236 4285821287
0.051885717 0.12798476 0.912512 4283913037
0.058933333 0.12826668 0.91342759 4288780679
0.066083811 0.12826668 0.91445541 4284177741
0.073200002 0.12897143 0.91534376 4286741635
0.080171429 0.12897143 0.91610777 4287400839
0.087142855 0.12897143 0.91687322 4284505686
0.094114281 0.12897143 0.91764045 4286349677
0.10108571 0.12897143 0.91840917 4286809474
0.10841144 0.12939429 0.91953516 4287269757
0.11565714 0.12939429 0.92053527 4284047445
0.12266667 0.12967619 0.92163795 4285295221
0.13009904 0.13009904 0.92240316 4287729037
0.13713144 0.13009904 0.92316771 4285098606
0.14447621 0.13009904 0.92413843 4284242262
0.15152381 0.13038096 0.92489737 4284047450
0.15857144 0.13038096 0.92565513 4287992208
0.16615619 0.13038096 0.92672008 4284636760
0.17322667 0.13080382 0.92747527 4284900958
0.18068573 0.13080382 0.92843878 4290954172
0.18837714 0.13108572 0.92947686 4291940563
0.19548573 0.13150857 0.93019468 4291875281
0.20259428 0.13150857 0.93091637 4291875025
0.2101524 0.13150857 0.93189323 4292006357
0.2172762 0.13179047 0.93262857 4285298280
0.22512001 0.13221334 0.93376994 4285822817
0.23226666 0.13221334 0.93451858 4284701777
0.23992382 0.13249524 0.93555218 4284441180
0.24708572 0.13249524 0.9363091 4284176730
0.25424764 0.13249524 0.93706715 4283914069
0.26224384 0.13249524 0.93826914 4284308057
0.26857147 0.13291809 0.9385888 4286349434
0.27573335 0.13291809 0.93979591 4284110937
0.2837981 0.13291809 0.94100982 4286415469
0.29098287 0.13291809 0.94132537 4284834897
0.29816765 0.13291809 0.94187599 4286018423
0.30535236 0.13291809 0.94290704 4284505188
0.31353143 0.13334095 0.94381297 4284177242
0.32141718 0.13362287 0.94441307 4283717716
0.32864001 0.13362287 0.94502425 4285691261
0.33586287 0.13362287 0.94564646 4288059801
0.34308574 0.13362287 0.94627988 4283522923
0.3503086 0.13362287 0.94692522 4285627754
0.35753146 0.13362287 0.94758248 4286086013
0.36475432 0.13362287 0.9482522 4286347640
0.37197715 0.13362287 0.94893461 4284508008
0.3804 0.13404572 0.95017618 4284375394
0.38764572 0.13404572 0.95088726 4283520592
0.39613718 0.13404572 0.95215881 4286547848
0.40340573 0.13446857 0.95289564 4290362559
0.4106743 0.13446857 0.95325804 4290296511
0.41881904 0.13446857 0.95401108 4290362304
0.42610288 0.13475049 0.95441437 4290493121
0.43474671 0.13517334 0.95541096 4288849578
0.44067049 0.13475049 0.95586348 4288651937
0.4479543 0.13475049 0.95574951 4288255380
0.45666668 0.13517334 0.95683908 4287731097
0.46542481 0.1355962 0.95796371 4288453784
0.4727543 0.1355962 0.95852661 4288716959
0.48008385 0.1355962 0.95912033 4288913573
0.48741335 0.1355962 0.95974809 4289573037
0.4947429 0.1355962 0.96041209 4289374893
0.50311619 0.1355962 0.96152955 4289967538
0.51046097 0.1358781 0.96227992 4289967284
0.51780576 0.1358781 0.9630779 4289901747
0.5233143 0.1358781 0.96329099 4289770167
nan nan 1.0055729 10197915
nan nan 1.0061622 11184810
nan nan 1.0067879 10921640
nan nan 1.0074534 11185062
nan nan 1.0081626 11382191
nan nan 1.0089202 11054759
nan nan 1.0097308 10858155
nan nan 1.0106006 10792621
nan nan 1.0370969 10066510
-0.51391625 0.12836571 0.87176889 4288126327
-0.51017141 0.12836571 0.87225676 4288060791
-0.50358856 0.12836571 0.87270749 4288257911
-0.49700573 0.12836571 0.8731252 4288126586
-0.49042287 0.12836571 0.87351316 4288191618
-0.48384002 0.12836571 0.87387472 4288256901
-0.47890288 0.12836571 0.87443393 4288191625
-0.47339812 0.12881143 0.87474942 4288191117
-0.46677715 0.12881143 0.8750453 4288191886
-0.46015617 0.12910856 0.87546504 4288257932
-0.45457906 0.12910856 0.87586361 4288454289
-0.44794288 0.12910856 0.8761093 4288388494
-0.44130671 0.12940572 0.87634116 4288389519
-0.43467048 0.12940572 0.87656057 4288454790
-0.42901716 0.12940572 0.87676811 4288389252
-0.42236573 0.12940572 0.87726814 4288389254
-0.41476193 0.12940572 0.87775612 4288389256
-0.40906286 0.12970287 0.87836677 4288256906
-0.40333337 0.12970287 0.878833 4288257167
-0.39666671 0.13000001 0.87941915 4288454810
-0.39133716 0.13000001 0.8801164 4289046177
-0.38552383 0.13044572 0.88055563 4289506726
-0.37881905 0.13044572 0.88116241 4289835945
-0.37296 0.13074286 0.88176745 4290295731
-0.36623999 0.13104001 0.88218147 4290493362
-0.35951999 0.13104001 0.88258582 4290493621
-0.35280001 0.13104001 0.88298094 4290822073
-0.34725717 0.13104001 0.88365912 4290888124
-0.3405143 0.13148573 0.88403815 4291019451
-0.33377144 0.13148573 0.88440883 4291282622
-0.32702857 0.13148573 0.88482648 4291479490
-0.32028574 0.13148573 0.88524276 4291413953
-0.31496 0.13178286 0.88586628 4291479493
-0.30818668 0.13178286 0.88649559 4291545798
-0.30141333 0.13178286 0.88691169 4291348673
-0.29464 0.13208 0.88732606 4291348677
-0.28851429 0.13208 0.88795984 4291611844
-0.28172573 0.13237715 0.88837188 4288455763
-0.27586287 0.13237715 0.88912195 4290624072
-0.26905146 0.13282286 0.88953102 4290624064
-0.26224002 0.13282286 0.889938 4290689856
-0.25600001 0.13282286 0.89057362 4290821439
-0.24972953 0.13312 0.89097613 4290821443
-0.24288763 0.13312 0.89160895 4290690623
-0.23604573 0.13341716 0.89200622 4290559042
-0.22996952 0.13341716 0.89265549 4290492994
-0.22310477 0.13386285 0.89295244 4290296383
-0.21624 0.13386285 0.89324951 4286612245
-0.20937525 0.13386285 0.89354616 4291219397
-0.20251048 0.13341716 0.89384246 4291151815
-0.1949943 0.13312 0.89377886 4291414471
-0.18731429 0.13282286 0.89359963 4291085510
-0.18050288 0.13282286 0.8938939 4291874510
-0.17738287 0.13460571 0.89650756 4280888884
-0.16818668 0.13346666 0.8964262 4281479981
-0.15881525 0.13178286 0.89395577 4293321685
-0.15205714 0.13178286 0.89424962 4292927190
-0.14562666 0.13178286 0.89454412 4292993496
-0.13885334 0.13208 0.89507318 4292993496
-0.13208 0.13208 0.89536887 4293059291
-0.12558858 0.13208 0.89574987 4293125083
-0.11880001 0.13237715 0.89637417 4293190619
-0.11238858 0.13282286 0.89712948 4293125085
-0.10581334 0.13312 0.89777088 4292795856
-0.09898667 0.13312 0.89816594 4292993498
-0.092160001 0.13312 0.89856189 4292401620
-0.08533334 0.13312 0.89895833 4291941580
-0.078681909 0.13312 0.89935547 4291349193
-0.071680002 0.13282286 0.89949346 4292664279
-0.064708568 0.13237715 0.89989054 4293388257
-0.058026668 0.13282286 0.90028822 4291480266
-0.051200002 0.13282286 0.90095013 4289896359
-0.044373337 0.13312 0.90135038 4287071380
-0.037546664 0.13312 0.90175122 4293124836
-0.030788574 0.13312 0.9021529 4290884518
-0.023946667 0.13341716 0.90306091 4292795867
-0.017161906 0.13341716 0.90411443 4292730076
-0.010297143 0.13341716 0.90476811 4292730074
-0.0034400001 0.13386285 0.90569919 4291613133
0.0034400001 0.13416001 0.90635854 4285229915
0.01032 0.13416001 0.90701884 4285361256
0.017257143 0.13460571 0.90809584 4285097318
0.02416 0.13460571 0.90875888 4284570717
0.031062858 0.13460571 0.90942252 4284307540
0.038049527 0.13460571 0.91035831 4285294937
0.044967622 0.13490286 0.91102093 4287136649
0.051885717 0.13490286 0.9116832 4284178007
0.058803812 0.13490286 0.91234553 4287268445
0.065721907 0.13490286 0.91326624 4284767064
0.073040001 0.13564572 0.91429943 4285953140
0.080171429 0.13594286 0.91531235 4285625193
0.087142855 0.13594286 0.91608089 4284703066
0.094114281 0.13594286 0.91685057 4283714378
0.10108571 0.13594286 0.91798759 4285295463
0.10841144 0.13638857 0.91875881 4288453265
0.11540572 0.13638857 0.91953033 4287468438
0.1224 0.13638857 0.9205361 4283454545
0.12967619 0.13668571 0.9213056 4288650142
0.13713144 0.13713144 0.92240787 4287597445
0.14416382 0.13713144 0.9231708 4285823356
0.1511962 0.13713144 0.92393279 4286479738
0.15857144 0.13742858 0.924896 4285228118
0.16561906 0.13742858 0.92565018 4284637530
0.17322667 0.13787429 0.926709 4284834908
0.18029715 0.13787429 0.92745858 4289178283
0.18777144 0.13787429 0.92836696 4292006612
0.19485717 0.13817145 0.92907077 4291875027
0.20259428 0.13817145 0.93013471 4291875284
0.20970286 0.13861714 0.93085617 4291941078
0.2172762 0.1389143 0.93183702 4286216063
0.22512001 0.13936 0.93297142 4286087528
0.23226666 0.13936 0.93371457 4287202699
0.23941334 0.13936 0.93445987 4288518291
0.24655999 0.13936 0.93520695 4284901481
0.25370666 0.13936 0.93624282 4283060043
0.26140952 0.13965715 0.93699569 4284900976
0.26857147 0.13965715 0.93774974 4286021766
0.27573335 0.13965715 0.93850535 4284770661
0.28289524 0.13965715 0.93926227 4286807927
0.29005715 0.13965715 0.94002038 4283716685
0.29816765 0.14010286 0.94100773 4285558122
0.30535236 0.14010286 0.94156623 4284111441
0.31353143 0.14054857 0.94261527 4283783768
0.32073903 0.14054857 0.94320613 4284244569
0.32794669 0.14054857 0.94380784 4284242786
0.33586287 0.14084573 0.94476265 4285560696
0.3423619 0.14084573 0.94539285 4287533198
0.3503086 0.14084573 0.94603443 4285100660
0.35753146 0.14084573 0.94668788 4284769642
0.36475432 0.14084573 0.94735354 4283849303
0.37197715 0.14084573 0.9480316 4286808936
0.37920004 0.14084573 0.94872242 4283651148
0.38764572 0.14129142 0.94998002 4284180067
0.39489144 0.14129142 0.95069969 4285233021
0.40213716 0.14129142 0.95198613 4290493891
0.4106743 0.14173715 0.95234907 4290559680
0.41794288 0.14173715 0.95272911 4290493376
0.42521143 0.14173715 0.95351326 4290427841
0.43248004 0.14203429 0.95393759 4290427836
0.43974859 0.14173715 0.95438308 4290295996
0.4479543 0.14203429 0.95485181 4290296250
0.4552381 0.14203429 0.95595419 4290230459
0.46397334 0.14248 0.95709383 4290099130
0.47128001 0.14248 0.95765883 4290099130
0.47858667 0.14292572 0.95825499 4290098617
0.48589334 0.14292572 0.95888495 4289967543
0.4947429 0.14292572 0.95955175 4289836213
0.50311619 0.14292572 0.96068287 4289770676
0.51046097 0.14322285 0.96143627 4289639090
0.51780576 0.14322285 0.9622373 4289638833
0.5233143 0.14322285 0.96245229 4289441714
nan nan 1.0057685 11120816
nan nan 1.0063597 11120048
nan nan 1.0069869 11120046
nan nan 1.007654 11185069
nan nan 1.0083643 10726830
nan nan 1.0091228 10856874
nan nan 1.0099339 10725288
nan nan 1.0108041 10790570
nan nan 1.0378984 7897727
-0.51391625 0.13463619 0.8707934 4289376940
-0.51017141 0.13463619 0.87128335 4289442473
-0.50242287 0.13463619 0.87173599 4289573800
-0.49585524 0.13463619 0.87215567 4289836201
-0.49042287 0.13463619 0.87270331 4289967532
-0.48384002 0.13494857 0.87306637 4289836461
-0.47725716 0.13494857 0.87340528 4289836972
-0.47067428 0.13494857 0.87372249 4289902256
-0.46570289 0.13494857 0.87402004 4289705901
-0.45909718 0.13541715 0.87452549 4289836716
-0.45353523 0.13572952 0.87493306 4290099118
-0.44794288 0.13572952 0.87517965 4290099121
-0.44029334 0.13572952 0.8754124 4289968050
-0.4336724 0.13572952 0.87563252 4290230703
-0.42803431 0.13604191 0.87597996 4290165168
-0.4213981 0.13604191 0.8764798 4290099120
-0.41476193 0.13604191 0.87696785 4290099125
-0.40906286 0.13635428 0.87758088 4290033073
-0.40241143 0.13635428 0.87804627 4289704624
-0.39666671 0.13635428 0.87863392 4289901491
-0.39133716 0.13666669 0.87932551 4290295472
-0.38552383 0.13713524 0.87976283 4290361263
-0.37881905 0.13713524 0.88019019 4290295985
-0.37296 0.13744763 0.88078427 4290361522
-0.36623999 0.13776001 0.88137627 4290295983
-0.35951999 0.13744763 0.88177806 4290362289
-0.35280001 0.13776001 0.88217038 4290427826
-0.34608001 0.13776001 0.88255382 4290427572
-0.3405143 0.13776001 0.88292843 4288585378
-0.33377144 0.13822858 0.8835848 4289045407
-0.32702857 0.13822858 0.88399941 4289176993
-0.32028574 0.13822858 0.88441271 4290098611
-0.31354287 0.13822858 0.88482445 4289769639
-0.30818668 0.13822858 0.88544172 4289901484
-0.30073524 0.13854095 0.88585222 4289966505
-0.29397714 0.13854095 0.88626152 4291348419
-0.28851429 0.13885334 0.88688356 4291414725
-0.28172573 0.13916571 0.88729054 4288062798
-0.27493715 0.13916571 0.88791531 4290558278
-0.26905146 0.13916571 0.88831979 4290624320
-0.26224002 0.13916571 0.88905799 4290690113
-0.25542858 0.1396343 0.8894586 4290690368
-0.24917334 0.1396343 0.89008456 4290821696
-0.24288763 0.13994667 0.8904804 4290821692
-0.23552001 0.13994667 0.89087391 4290624322
-0.22920382 0.13994667 0.89139766 4290492994
-0.22310477 0.14025904 0.89169234 4290296381
-0.21552002 0.14025904 0.89198697 4286546959
-0.20937525 0.14025904 0.89228153 4291088065
-0.2018362 0.13994667 0.89257574 4291086022
-0.19456001 0.13994667 0.89263511 4291414216
-0.18731429 0.13916571 0.89269489 4291086021
-0.18050288 0.13916571 0.89298779 4291809229
-0.17738287 0.14104001 0.89521331 4280888623
-0.16986667 0.14039999 0.89550751 4281348654
-0.15881525 0.13854095 0.89305556 4293059285
-0.15205714 0.13854095 0.8933478 4292730324
-0.14529906 0.13854095 0.8936404 4292796374
-0.13885334 0.13854095 0.89416504 4292992985
-0.13208 0.13885334 0.89445901 4292993498
-0.12558858 0.13885334 0.89484107 4292993498
-0.11880001 0.13885334 0.89546424 4293059034
-0.11238858 0.13916571 0.89585215 4293059291
-0.10581334 0.1396343 0.89661211 4292795599
-0.09898667 0.13994667 0.89725733 4292927448
-0.092160001 0.13994667 0.89765489 4292335827
-0.08533334 0.13994667 0.89805287 4291875790
-0.078506663 0.13994667 0.89845169 4291415241
-0.071520008 0.13916571 0.8985914 4292401366
-0.064491428 0.13916571 0.89859843 4293519331
-0.057897147 0.1396343 0.89938879 4292467161
-0.051085718 0.1396343 0.89978874 4288451224
-0.044373337 0.1396343 0.90045404 4287662487
-0.037546664 0.13994667 0.90085632 4293124579
-0.030720001 0.13994667 0.90125936 4290359472
-0.023893334 0.13994667 0.90190196 4292729819
-0.017104764 0.13994667 0.90282238 4292664539
-0.010297143 0.14025904 0.90347445 4292927454
-0.0034400001 0.14072762 0.90482789 4291284171
0.0034400001 0.14104001 0.90549076 4285757298
0.01032 0.14104001 0.90615475 4288778894
0.017200001 0.14104001 0.9068197 4287072393
0.02416 0.14150856 0.90790749 4284044626
0.031062858 0.14150856 0.9085744 4283912265
0.037965715 0.14150856 0.90924138 4285754224
0.044967622 0.14150856 0.91018385 4286612090
0.051885717 0.14182095 0.91084933 4285687905
0.058803812 0.14182095 0.9115144 4286610807
0.065721907 0.14182095 0.91244328 4284177230
0.072800003 0.14260191 0.91348755 4284769886
0.079996191 0.14260191 0.91450995 4285162588
0.087142855 0.14291428 0.91528189 4284242005
0.094114281 0.14291428 0.91605473 4283913298
0.10108571 0.14291428 0.91682833 4285951592
0.10805714 0.14291428 0.91797608 4284899407
0.11540572 0.14338286 0.91874927 4288191108
0.1224 0.14338286 0.91952229 4285756767
0.12967619 0.14369524 0.92053175 4286415738
0.13668571 0.14369524 0.92164195 4283913814
0.14416382 0.14416382 0.92240435 4286544510
0.1511962 0.14416382 0.92316532 4287332726
0.15857144 0.14416382 0.92413169 4284045909
0.16561906 0.14447621 0.9248836 4286283128
0.17266668 0.14447621 0.92593783 4284835178
0.17971429 0.14447621 0.9266839 4287534487
0.18736762 0.14447621 0.92737335 4292137942
0.19485717 0.14525715 0.92828983 4292006612
0.20194286 0.14525715 0.92899454 4291940821
0.20902859 0.14525715 0.93006617 4291940821
0.21681143 0.14572573 0.93104082 4288058526
0.22440001 0.1460381 0.93176967 4284113260
0.23152383 0.1460381 0.93290555 4285295193
0.23941334 0.14650667 0.93364531 4285951581
0.24655999 0.14650667 0.93438649 4284836197
0.25289524 0.14650667 0.93512934 4283782740
0.26085332 0.14650667 0.93587363 4284439388
0.26799998 0.14650667 0.93661952 4284571235
0.27573335 0.14681906 0.93765485 4284573787
0.28289524 0.14681906 0.93840379 4285753716
0.29005715 0.14681906 0.93915349 4282731074
0.29721907 0.14681906 0.94013548 4286414462
0.30535236 0.14728762 0.94069093 4284640100
0.31253713 0.1477562 0.94173568 4283848017
0.32073903 0.14728762 0.94232345 4283456854
0.32690668 0.14728762 0.94242352 4285690477
0.33409145 0.1477562 0.94353181 4287728533
0.3423619 0.1477562 0.94415319 4286283642
0.34956953 0.1477562 0.94478613 4287203721
0.35677716 0.1477562 0.94543111 4287728782
0.36475432 0.14806858 0.94645 4287138175
0.37197715 0.14806858 0.94712389 4284374888
0.37920004 0.14806858 0.94781035 4283389519
0.38642287 0.14806858 0.94906694 4286018419
0.39364573 0.14806858 0.9492228 4285560688
0.40213716 0.14806858 0.95051003 4290363070
0.40938288 0.14853714 0.95143324 4290493373
0.41794288 0.14900573 0.95181429 4290362047
0.42521143 0.14900573 0.95221359 4290362047
0.43248004 0.14900573 0.95263284 4290296509
0.43974859 0.14900573 0.95307314 4290164667
0.4479543 0.14900573 0.95394588 4290164411
0.4552381 0.1493181 0.95444041 4290098361
0.46252191 0.1493181 0.9549619 4289967545
0.46980572 0.1493181 0.95551252 4289901753
0.47708955 0.1493181 0.95609438 4289901747
0.48589334 0.14978667 0.95736533 4289770165
0.49320003 0.14978667 0.95868105 4289704884
0.50207239 0.15025525 0.95939052 4288651435
0.51046097 0.15056762 0.96058196 4287598481
0.5167315 0.15056762 0.96138626 4287469468
0.5233143 0.15056762 0.96160293 4287469970
nan nan 1.00597 11250853
nan nan 1.0065628 10923185
nan nan 1.0071918 10791853
nan nan 1.0078601 10725288
nan nan 1.0085715 10594731
nan nan 1.0093309 10397606
nan nan 1.0101424 10528938
nan nan 1.0110127 10331559
nan nan 1.0387263 10922660
-0.5127238 0.14087619 0.86980098 4289047460
-0.50899047 0.14087619 0.8704595 4289113250
-0.50125712 0.14087619 0.87074876 4289179300
-0.49585524 0.14087619 0.87117082 4289244839
-0.49042287 0.14120382 0.87189096 4289245606
-0.48384002 0.14153142 0.87225556 4289442471
-0.47725716 0.14153142 0.87259603 4289376683
-0.47067428 0.14153142 0.87291461 4287863704
-0.46301717 0.14120382 0.87305355 4288124817
-0.45750856 0.14153142 0.87349397 4288060301
-0.45353523 0.14202286 0.87398833 4288586389
-0.44588572 0.14202286 0.87423623 4288717209
-0.44029334 0.14202286 0.87461758 4288914591
-0.43467048 0.14235048 0.87498099 4290098863
-0.42803431 0.14267811 0.87518901 4290032817
-0.42236573 0.14267811 0.87568909 4290033327
-0.41476193 0.14267811 0.87617725 4290033329
-0.40906286 0.14267811 0.87679279 4289572524
-0.40241143 0.14300571 0.87725759 4289703596
-0.39666671 0.14300571 0.87784666 4290033583
-0.39000002 0.14333335 0.87828916 4290362035
-0.38333336 0.14333335 0.87872136 4290296498
-0.37795812 0.14333335 0.87939352 4290427828
-0.3721143 0.14333335 0.87980902 4290362037
-0.36457905 0.14333335 0.88021451 4290427829
-0.35870478 0.14382477 0.88061094 4290624695
-0.35280001 0.14415239 0.88117629 4290624952
-0.34608001 0.14448 0.88173896 4290427316
-0.33936 0.14448 0.88211113 4289111978
-0.33377144 0.14448 0.88275826 4289045152
-0.32702857 0.14448 0.88288289 4290033324
-0.32028574 0.14448 0.88358068 4291019708
-0.31354287 0.14497143 0.88398963 4291085503
-0.30749333 0.14529906 0.88459903 4291217089
-0.30073524 0.14529906 0.88500649 4290559161
-0.29397714 0.14529906 0.88541234 4291282881
-0.28786668 0.14529906 0.88602626 4291414980
-0.28172573 0.14562666 0.88642979 4287995988
-0.27493715 0.14595428 0.88704628 4290558274
-0.26814857 0.14595428 0.88744664 4290492990
-0.26224002 0.14595428 0.88817453 4290690112
-0.25542858 0.14644572 0.88857102 4290690112
-0.24861714 0.14644572 0.88896543 4290690367
-0.24180572 0.14644572 0.88935745 4290755905
-0.23499431 0.14644572 0.88974738 4290624320
-0.22869334 0.14644572 0.89026231 4290361919
-0.22186667 0.14677334 0.89055496 4290165310
-0.21504 0.14677334 0.8908475 4286744082
-0.20867811 0.14677334 0.89137012 4291087810
-0.20138668 0.14677334 0.89143276 4291019972
-0.19456001 0.14644572 0.8917253 4291216837
-0.18668571 0.14562666 0.89144659 4291019715
-0.17949335 0.14562666 0.89151174 4291742924
-0.17610668 0.14700954 0.89343041 4281086249
-0.16762668 0.14677334 0.89313012 4281413937
-0.15881525 0.14497143 0.89215744 4293125074
-0.15171428 0.14497143 0.89222342 4292598996
-0.14529906 0.14497143 0.89251381 4292796117
-0.13854095 0.14529906 0.89303082 4292927191
-0.13208 0.14529906 0.89355063 4292861911
-0.12530667 0.14529906 0.89393401 4292993240
-0.11853334 0.14562666 0.89431858 4292993498
-0.11201143 0.14562666 0.89494431 4292993240
-0.10557714 0.14644572 0.89570159 4292532175
-0.09898667 0.14644572 0.89634645 4292993496
-0.092160001 0.14677334 0.8967455 4292335827
-0.085523814 0.14677334 0.89714539 4291941327
-0.078506663 0.14677334 0.89780265 4291414985
-0.071520008 0.14595428 0.89768845 4292072401
-0.064491428 0.14595428 0.89769894 4293256418
-0.057897147 0.14595428 0.89848858 4292861919
-0.051085718 0.14644572 0.8988899 4286807428
-0.044274289 0.14644572 0.89929211 4288255898
-0.03746286 0.14644572 0.8996948 4292861405
-0.030720001 0.14644572 0.90036446 4290360757
-0.023893334 0.14677334 0.90101057 4293058272
-0.017104764 0.14677334 0.90193498 4292795870
-0.010297143 0.14710096 0.90259069 4292861916
-0.003432381 0.14710096 0.90367144 4292138385
0.003432381 0.14759238 0.90433574 4285885046
0.01032 0.14759238 0.90528631 4285032011
0.017257143 0.14792001 0.90638047 4287989640
0.02416 0.14841142 0.90705079 4284306518
0.031062858 0.14841142 0.90772116 4285165407
0.037965715 0.14841142 0.90839159 4284966492
0.044967622 0.14841142 0.90934134 4286086253
0.051885717 0.14873905 0.91000986 4284111696
0.058803812 0.14873905 0.91067827 4286677107
0.065721907 0.14873905 0.9116143 4283123522
0.072640002 0.14906667 0.91227794 4286613381
0.079733334 0.14906667 0.91344219 4286083950
0.086952381 0.1495581 0.91447634 4284176982
0.094114281 0.14988571 0.91525263 4284177225
0.10108571 0.14988571 0.91602945 4284967532
0.10805714 0.15037715 0.91718721 4285493353
0.11502858 0.15037715 0.91796237 4287662984
0.1224 0.15037715 0.91873699 4287006842
0.12939429 0.15037715 0.91951132 4289635499
0.13668571 0.15037715 0.92052239 4287466374
0.14416382 0.15070477 0.92163223 4285297262
0.1511962 0.1511962 0.92239261 4284572513
0.15822858 0.1511962 0.92315096 4285165400
0.16561906 0.1511962 0.92411238 4286808446
0.17266668 0.15152381 0.92486018 4286677110
0.17971429 0.15152381 0.92560548 4286679446
0.18736762 0.15201525 0.92659301 4292138455
0.19485717 0.15234286 0.9275046 4292072662
0.20194286 0.15234286 0.9282071 4292006613
0.20902859 0.15234286 0.92891264 4292137942
0.2161143 0.15234286 0.92962176 4289834932
0.22392 0.15283428 0.93070889 4284375128
0.23152383 0.15283428 0.93169183 4284440922
0.23864764 0.15316191 0.93242085 4287400578
0.24655999 0.15365332 0.93356156 4284110937
0.25289524 0.15316191 0.9338851 4283716440
0.26085332 0.15365332 0.93503666 4286282099
0.26799998 0.15365332 0.93577588 4285033056
0.27514669 0.15365332 0.9368009 4286875263
0.28289524 0.15365332 0.9375422 4287006352
0.29005715 0.15398096 0.9382841 4287861631
0.29721907 0.15398096 0.93881494 4288649114
0.30438095 0.15398096 0.93935597 4285492846
0.31253713 0.15447238 0.9403758 4283453775
0.31972191 0.15447238 0.94095016 4286611067
0.32690668 0.15447238 0.94153583 4288059541
0.33409145 0.15447238 0.94213259 4288387219
0.34127617 0.15447238 0.94325638 4285755760
0.34956953 0.15496381 0.9438858 4285361246
0.35564572 0.15447238 0.94452703 4286281332
0.36398476 0.15496381 0.94518059 4285954419
0.3711924 0.15496381 0.94584662 4286348658
0.37920004 0.15496381 0.94689435 4287205262
0.38560763 0.15529144 0.94758934 4285493109
0.39364573 0.15529144 0.94829756 4284835943
0.40213716 0.15529144 0.94958264 4290362305
0.40938288 0.15578286 0.9499374 4290361534
0.4166286 0.15578286 0.95089239 4290361790
0.42387432 0.15578286 0.95069933 4290296765
0.43112001 0.15578286 0.95110929 4290164669
0.43974859 0.15627429 0.9521538 4290098876
0.44701719 0.15627429 0.95303255 4290032827
0.45428574 0.15627429 0.95310724 4289967033
0.46155429 0.15627429 0.95362329 4289901239
0.46980572 0.15627429 0.95460302 4289835959
0.47708955 0.15660191 0.95518637 4289769651
0.48437333 0.15660191 0.95646971 4289835443
0.49320003 0.15709335 0.95713401 4289769906
0.50207239 0.15758479 0.95851249 4289770418
0.50940198 0.15758479 0.95971662 4289704882
0.5167315 0.15758479 0.96007305 4289507505
0.52147812 0.15607619 0.96074295 4289309870
nan nan 1.0061772 10133151
nan nan 1.0067717 10923435
nan nan 1.0074021 10922410
nan nan 1.0080718 10989230
nan nan 1.0087845 10922667
nan nan 1.0095445 10529199
nan nan 1.0103567 10462888
nan nan 1.0112265 10463136
nan nan 1.0395814 11054759
-0.5127238 0.14742857 0.86896712 4289179560
-0.50780952 0.14708571 0.86946332 4289376424
-0.50125712 0.14708571 0.86992162 4289376425
-0.49470475 0.14742857 0.87034631 4289311145
-0.48928761 0.14777143 0.87091041 4289376938
-0.48272002 0.14777143 0.87127763 4289508267
-0.47725716 0.14777143 0.8716203 4289573804
-0.47067428 0.14777143 0.87194121 4288191899
-0.46409145 0.14777143 0.87224197 4288191640
-0.45750856 0.14777143 0.87268668 4287797389
-0.45249146 0.14811429 0.87318659 4289835690
-0.44588572 0.14862858 0.87343526 4289836719
-0.44029334 0.14862858 0.87382007 4289246371
-0.43467048 0.14897142 0.87404126 4289902000
-0.42803431 0.1493143 0.87439519 4289901743
-0.4213981 0.1493143 0.87489611 4289967277
-0.41476193 0.1493143 0.87538451 4290033072
-0.40812573 0.1493143 0.87586111 4289834923
-0.40148956 0.1493143 0.87632608 4287927427
-0.39666671 0.1493143 0.87705749 4289835437
-0.39000002 0.15000001 0.8774994 4290362035
-0.38333336 0.15000001 0.87793064 4290362036
-0.37795812 0.15051429 0.87859523 4290427573
-0.37126857 0.15000001 0.87900913 4290427830
-0.36540955 0.15051429 0.87958378 4290493367
-0.35870478 0.15051429 0.87997985 4290493623
-0.35200003 0.15085715 0.8803665 4290624953
-0.34608001 0.15120001 0.88092232 4290164145
-0.33936 0.15120001 0.88129222 4289965998
-0.33263999 0.15120001 0.88165343 4288716184
-0.32591999 0.15120001 0.8820594 4289636776
-0.32028574 0.15120001 0.88274688 4290953917
-0.31425145 0.15171428 0.8831529 4291085759
-0.30749333 0.15171428 0.8835575 4291217089
-0.30073524 0.15171428 0.88415891 4290493622
-0.29397714 0.15171428 0.88456148 4291282626
-0.28786668 0.15171428 0.88496232 4291414470
-0.28172573 0.1524 0.88556683 4288193359
-0.27493715 0.1524 0.88617444 4290492995
-0.26814857 0.1524 0.88657123 4290558529
-0.26136002 0.15274286 0.88696587 4290624322
-0.25457144 0.15274286 0.88735843 4290689856
-0.24861714 0.15274286 0.88774914 4290558784
-0.24180572 0.15325716 0.88845855 4290624319
-0.23499431 0.15325716 0.88884443 4290558786
-0.22818287 0.15325716 0.88913482 4290427455
-0.22186667 0.15325716 0.88964528 4290296126
-0.21504 0.15359999 0.88993728 4286875672
-0.20821334 0.15359999 0.89022893 4291087298
-0.20138668 0.15359999 0.89052087 4290954181
-0.19412573 0.15325716 0.89058787 4291216581
-0.18668571 0.1524 0.89054489 4291019715
-0.17949335 0.15205714 0.89039582 4291085763
-0.17441335 0.15274096 0.89146078 4281217598
-0.16594668 0.15205714 0.89197928 4281019942
-0.15845715 0.15171428 0.89104253 4292928209
-0.15171428 0.15171428 0.89133114 4292467409
-0.14497143 0.15171428 0.8916201 4292664275
-0.13822858 0.15171428 0.8919099 4292795862
-0.13178286 0.15171428 0.89220005 4292730325
-0.12502477 0.15205714 0.89280152 4292598995
-0.11853334 0.15205714 0.89318341 4292730071
-0.11176001 0.1524 0.89380103 4292795862
-0.10557714 0.15274286 0.89479017 4292532174
-0.09898667 0.15325716 0.89518762 4292861656
-0.092160001 0.15325716 0.89583439 4292270034
-0.08533334 0.15359999 0.89623588 4291941325
-0.078506663 0.15359999 0.8966378 4291414728
-0.071520008 0.15274286 0.89678466 4291875528
-0.064491428 0.1524 0.89654481 4293256417
-0.057702858 0.1524 0.89719957 4293388005
-0.051085718 0.15274286 0.89799041 4284703607
-0.044274289 0.15325716 0.89839399 4288913831
-0.037546664 0.15325716 0.89879811 4292729304
-0.03065143 0.15325716 0.89920318 4290887107
-0.023893334 0.15359999 0.90011781 4293059298
-0.017104764 0.15359999 0.90104532 4292927712
-0.010262858 0.15394287 0.90170497 4292335571
-0.0034209525 0.15394287 0.90236658 4290961547
0.0034209525 0.15394287 0.90303016 4285425273
0.01032 0.15445715 0.90441358 4285162601
