# .PCD v0.7 - Point Cloud Data file format
VERSION 0.7
FIELDS x y z rgba
SIZE 4 4 4 4
TYPE F F F U
COUNT 1 1 1 1
WIDTH 1155
HEIGHT 1
VIEWPOINT 0 0 0 1 0 0 0
POINTS 1155
DATA ascii
0.15039618 0.10161905 1.0590975 4279901983
0.15793145 0.1012381 1.0562901 4279902244
0.16509333 0.10066667 1.0538262 4280033832
0.17314667 0.10066667 1.0512812 4279903272
0.18068571 0.10038095 1.0486704 4280100136
0.1887162 0.10038095 1.0473959 4280296746
0.19544001 0.099428572 1.0428605 4280230955
0.20225142 0.099142857 1.0401556 4280363047
0.21018286 0.099142857 1.0375358 4280297002
0.21748573 0.099142857 1.0361929 4280100136
0.22452572 0.098476194 1.0317417 4280099880
0.23172954 0.098190472 1.0290172 4280033829
0.23888762 0.097904764 1.0274937 4279902495
0.24600002 0.097619057 1.0245624 4279902495
0.25306669 0.097333334 1.0215117 4279770657
0.26008764 0.097047627 1.0169171 4279770144
0.26706287 0.097047627 1.015147 4279638816
0.27399239 0.096761912 1.0118884 4279507743
0.28087616 0.09647619 1.0086192 4279507487
0.28857142 0.096190475 1.0053715 4279442201
0.2953867 0.095904775 1.0021766 4279638558
0.30215618 0.095619053 1.0003828 4279637788
0.30888 0.095333338 0.99606508 4279375639
0.31555808 0.095047623 0.99359572 4279310108
0.32219049 0.094761908 0.99111044 4279310106
0.32877713 0.094476193 0.98862231 4279572247
0.33531812 0.094190478 0.98614502 4279310102
0.34112 0.093714289 0.98405272 4279506710
0.34861714 0.093714289 0.98161954 4279703319
0.3550286 0.093428575 0.98023361 4279572246
0.36139429 0.092857145 0.97698313 4279506198
0.36771429 0.092666671 0.97462827 4279571225
0.37437335 0.092666671 0.97256309 4279178518
0.37943241 0.092095241 0.97017717 4279375123
0.3856 0.091809526 0.96686572 4279636499
0.39212954 0.091619052 0.96544182 4279374611
0.39945909 0.091619052 0.96342188 4279112467
0.40425146 0.091047622 0.96115535 4279505430
0.4106743 0.090857148 0.95958072 4279505940
0.41794288 0.090857148 0.95882457 4279374868
0.42521143 0.090857148 0.95747232 4279571225
0.43112001 0.090571433 0.95581543 4279375382
0.43606097 0.090095244 0.95359731 4279178265
0.44186288 0.089809522 0.95192415 4279440661
0.44761908 0.089523815 0.95102561 4279244055
0.45381331 0.089333333 0.94933146 4279571996
0.46096003 0.089047626 0.9478876 4279375643
0.46660954 0.089047626 0.94621152 4279637787
0.47272003 0.088857144 0.94477719 4279571994
0.47828576 0.088380955 0.94375157 4279440147
0.48276192 0.087904766 0.94178635 4279178008
0.4871619 0.087619044 0.94046742 4279571739
0.49417144 0.087619044 0.93899906 4279571490
nan nan 1.3003849 858680
nan nan 1.3004236 5266814
nan nan 1.3004634 5200517
nan nan 1.3005047 7233840
nan nan 1.3005475 8943704
nan nan 1.3005919 11439464
nan nan 1.3006377 8014149
nan nan 1.3006853 10066842
nan nan 1.3007345 16711422
nan nan 1.3014772 197632
nan nan 1.3013964 131586
nan nan 1.301314 197379
nan nan 1.301229 132608
nan nan 1.3011422 66563
nan nan 1.3010529 197379
nan nan 1.300962 197888
nan nan 1.3008682 132608
nan nan 1.3007721 197379
nan nan 1.3006734 770
-0.51179045 0.099771433 0.98749125 4278321666
-0.50652385 0.099771433 0.9877916 4278520067
-0.49885714 0.099771433 0.98806822 4278586889
-0.49400002 0.10008001 0.98906523 4278979852
-0.4895657 0.10059429 0.99011326 4278586121
-0.48356572 0.10090286 0.99032408 4278782729
-0.47752002 0.10121143 0.99160522 4278848266
-0.46857142 0.10121143 0.99240029 4278848778
-0.46248004 0.10121143 0.99383837 4278783494
-0.45726478 0.10172572 0.99505967 4278718213
-0.44970667 0.10203429 0.99651915 4278849030
-0.44214857 0.10203429 0.99724352 4278979596
-0.4359048 0.10234286 0.99869514 4278783500
-0.42832384 0.10203429 0.99861497 4278979596
-0.42201144 0.10234286 1.0000341 4278783243
-0.41316193 0.10234286 1.000668 4278848780
-0.40558097 0.10234286 1.0012795 4279045132
-0.39989525 0.10234286 1.0026628 4279045132
-0.39277336 0.10265143 1.004038 4279045388
-0.38630098 0.10265143 1.0045942 4279045644
-0.37865144 0.10326858 1.005939 4278980108
-0.37100193 0.10296 1.00694 4278979852
-0.36335239 0.10296 1.0079415 4278784011
-0.35676575 0.10326858 1.0098004 4278783500
-0.34909335 0.10326858 1.0099468 4279176205
-0.34142098 0.10357715 1.0118269 4278979595
-0.33474287 0.10388572 1.0137151 4279111181
-0.32801905 0.10419428 1.0156006 4278784268
-0.32124954 0.10419428 1.0174723 4279046156
-0.31443429 0.10450286 1.0193197 4279045642
-0.30667049 0.10481143 1.0203055 4279111182
-0.29890668 0.10481143 1.0212827 4279111180
-0.29200003 0.10512 1.0230564 4279242503
-0.28421333 0.10512 1.0240027 4279176718
-0.27804953 0.10512 1.0256991 4279110924
-0.27021715 0.10542858 1.0273334 4279110670
-0.26315048 0.10604572 1.0290515 4279242254
-0.25529525 0.10604572 1.0300686 4279111180
-0.24816002 0.10604572 1.0310936 4278980364
-0.24028191 0.10635429 1.0328794 4279111182
-0.23240381 0.10635429 1.0339192 4279111186
-0.22539431 0.10635429 1.0361856 4279110931
-0.21811429 0.10707428 1.0381875 4279242252
-0.21078858 0.10738286 1.0402153 4279373325
-0.20283429 0.10738286 1.0412778 4279307789
-0.19488001 0.10738286 1.0423409 4279242511
-0.18692571 0.10738286 1.0434047 4279243022
-0.17948572 0.10769143 1.0454247 4279242767
-0.17200001 0.10769143 1.047433 4279374350
-0.16509333 0.10800001 1.0497376 4279242511
-0.15704001 0.10872 1.0516853 4279439890
-0.14898667 0.10872 1.0524776 4279440140
-0.14133334 0.10872 1.0542229 4279374098
-0.13325715 0.10902857 1.0550202 4279243279
-0.12518096 0.10902857 1.0558202 4279243283
-0.11743619 0.10933715 1.0575631 4279570963
-0.10974857 0.10933715 1.0583607 4279243282
-0.10190476 0.10974857 1.0603901 4279374867
-0.093752384 0.10974857 1.0620831 4279440147
-0.085600004 0.10974857 1.0628539 4279309579
-0.077447623 0.11005715 1.0636231 4279440147
-0.069489524 0.11036573 1.0652466 4279702037
-0.061314289 0.11036573 1.0659943 4279768855
-0.053139053 0.11036573 1.0667394 4279637013
-0.04513143 0.11077715 1.0685287 4279637523
-0.037028573 0.11077715 1.0692383 4279702807
-0.028800001 0.11077715 1.0692579 4279834392
-0.020571429 0.11077715 1.0692776 4279834650
-0.012342858 0.11077715 1.0700783 4280561447
-0.004114286 0.11108572 1.070109 4281020210
0.004114286 0.11108572 1.07014 4291089093
0.012742857 0.11509714 1.0836539 4286087291
0.021238094 0.11509714 1.0837085 4278650635
0.027708573 0.11509714 1.083764 4278915350
0.037885714 0.11396571 1.0791391 4279178772
0.04643048 0.11396571 1.079192 4279309852
0.054872382 0.11365715 1.0792458 4279703577
0.06291429 0.11324572 1.0781629 4279441688
0.071043812 0.11283428 1.0754321 4279310359
0.079184763 0.11283428 1.0754836 4279571989
0.087200001 0.11211429 1.0745738 4279571733
0.095504768 0.11180571 1.0728316 4279571989
0.10323811 0.11180571 1.0713886 4279310358
0.11108572 0.11108572 1.0685951 4279375895
0.11898285 0.11077715 1.0668123 4279441694
0.12636191 0.11005715 1.0645139 4279835675
0.13451429 0.11005715 1.0624628 4279639323
0.14226668 0.11005715 1.0615451 4279704610
0.15039618 0.10974857 1.0593039 4280097827
0.15793145 0.10933715 1.0582801 4280361505
0.16556191 0.10902857 1.0540659 4280493092
0.17314667 0.10872 1.0515348 4280427816
0.18120001 0.10841143 1.0503051 4280624934
0.1887162 0.10841143 1.0476558 4280821548
0.19544001 0.10769143 1.0445094 4280428587
0.20283429 0.10738286 1.040473 4280494375
0.21018286 0.10707428 1.0378639 4280232229
0.21811429 0.10676572 1.0365107 4280297510
0.22539431 0.10676572 1.0337996 4280296745
0.23172954 0.10604572 1.0306396 4280165667
0.23958477 0.10604572 1.0278484 4280100383
0.24672 0.10573714 1.0249177 4280033823
0.25380954 0.10542858 1.0232695 4279967781
0.26008764 0.10481143 1.0187222 4279902495
0.26706287 0.10450286 1.0155065 4279902495
0.27480382 0.10450286 1.0122495 4279443227
0.28171048 0.10419428 1.0104229 4279966748
0.28857142 0.10388572 1.0071493 4279900700
0.29626665 0.10388572 1.003914 4279639067
0.30305907 0.10357715 1.0007483 4279900442
0.30980572 0.10326858 0.99894649 4279703833
0.31555808 0.10265143 0.99519551 4279441688
0.3231619 0.10234286 0.99268556 4279376152
0.32977143 0.10234286 0.99016589 4279506454
0.33633524 0.10203429 0.98765045 4279703318
0.34216002 0.10152001 0.98442173 4279572501
0.34861714 0.10121143 0.98198855 4279375892
0.3561143 0.10121143 0.98060149 4279506197
0.36139429 0.10059429 0.97826529 4279571733
0.36771429 0.10028572 0.97500616 4279505940
0.37437335 0.10008001 0.97294396 4279374868
0.38060954 0.099771433 0.97148824 4279440915
0.3856 0.099154294 0.96818811 4279440659
0.39294475 0.099154294 0.96583718 4279374611
0.39945909 0.098948583 0.96382195 4279440147
0.40552002 0.098640002 0.96240813 4279374102
0.41153523 0.098331429 0.95998484 4279440147
0.41881904 0.098331429 0.95922738 4279505683
0.42610288 0.098125719 0.95843291 4279505688
0.43248004 0.097817145 0.9570455 4279571733
0.43606097 0.097302862 0.9539935 4279571735
0.44326857 0.097302862 0.95311779 4279505940
0.44904763 0.096994288 0.95219964 4279571733
0.45478097 0.096685715 0.94972163 4279571738
0.46096003 0.096479997 0.94827628 4279637020
0.46660954 0.096171431 0.94659775 4279571483
0.47272003 0.095965713 0.9455952 4279703320
0.47828576 0.095657155 0.94413811 4279571732
0.48171809 0.094937146 0.94218391 4279571733
0.4871619 0.094937146 0.94086963 4279571484
0.49417144 0.094937146 0.93940765 4279833886
0.49929908 0.094937146 0.93946183 4280761959
nan nan 1.3006757 4937083
nan nan 1.3007094 5200003
nan nan 1.3007441 7626777
nan nan 1.3007798 9930348
nan nan 1.300817 7813135
nan nan 1.3008555 8537161
nan nan 1.3008955 9670549
nan nan 1.3009369 16646142
nan nan 1.3015707 262913
nan nan 1.3014987 197379
nan nan 1.3014252 66563
nan nan 1.3013498 328704
nan nan 1.3012725 770
nan nan 1.3011935 131586
nan nan 1.3011119 65793
nan nan 1.3010286 770
nan nan 1.3009433 131586
nan nan 1.3008555 65795
-0.51442862 0.10585714 0.98869455 4278190850
-0.50885713 0.10749333 0.9889881 4278453252
-0.50040001 0.10749333 0.98895985 4278520078
-0.49400002 0.10771429 0.98950768 4278913806
-0.4895657 0.10804572 0.99057347 4278520585
-0.48356572 0.10870858 0.99124992 4278651401
-0.47752002 0.10904 0.9927156 4278782474
-0.47000003 0.10870858 0.99352467 4278717450
-0.46248004 0.10870858 0.99430388 4278651914
-0.45726478 0.10926095 0.99624884 4278651914
-0.44970667 0.10959239 0.99699622 4278586121
-0.44214857 0.10959239 0.99771589 4278782223
-0.4359048 0.10992382 0.99917501 4278652426
-0.42832384 0.10992382 0.9998526 4278914060
-0.42201144 0.10992382 1.0012956 4278979083
-0.41440764 0.10992382 1.0011352 4278979596
-0.40558097 0.10992382 1.0017428 4278979596
-0.40040001 0.11025524 1.0039444 4278979596
-0.39277336 0.11058667 1.0045173 4278848524
-0.38630098 0.11058667 1.0058879 4278783242
-0.37865144 0.1109181 1.0064219 4278979852
-0.37100193 0.11058667 1.0074124 4279045133
-0.36335239 0.11058667 1.0084037 4278979597
-0.35676575 0.1109181 1.0102613 4278848780
-0.34909335 0.11124954 1.011265 4279176204
-0.3424381 0.11124954 1.0122677 4279045899
-0.33573717 0.11158095 1.0150322 4279045389
-0.32801905 0.11191238 1.0160372 4278979852
-0.32124954 0.11191238 1.0179058 4278979596
-0.31443429 0.11224381 1.0197499 4278979596
-0.30667049 0.11257525 1.0207272 4278979344
-0.29978669 0.11257525 1.0216961 4278979858
-0.29200003 0.11290667 1.0234668 4279111182
-0.28504762 0.11290667 1.0244057 4279045389
-0.27804953 0.1132381 1.0268469 4279111182
-0.27100572 0.11356952 1.0284432 4278979346
-0.26315048 0.11390095 1.0294425 4278980108
-0.2560381 0.11390095 1.0304501 4279045646
-0.24816002 0.11423238 1.0322175 4278979858
-0.24028191 0.11423238 1.0332425 4279110930
-0.23330288 0.1146743 1.0354767 4279176719
-0.22539431 0.1146743 1.0365232 4279373326
-0.21874286 0.11500572 1.0385107 4279110926
-0.21078858 0.11533715 1.0405245 4279176720
-0.20283429 0.11533715 1.0415821 4279045395
-0.19544001 0.11533715 1.0436072 4279373071
-0.18746287 0.11566857 1.0446591 4279176976
-0.17948572 0.11566857 1.0457106 4279176975
-0.17265524 0.11600001 1.0477089 4279176975
-0.16509333 0.11677334 1.0509571 4279308304
-0.15748572 0.11677334 1.0528829 4279242768
-0.14940953 0.11710477 1.0536727 4279439122
-0.14133334 0.11710477 1.0544654 4279177746
-0.13325715 0.11710477 1.0552613 4279308563
-0.12553525 0.11710477 1.0569975 4279570955
-0.11743619 0.11743619 1.0577934 4279374354
-0.10974857 0.11743619 1.059822 4279308818
-0.10190476 0.11820953 1.0615189 4279047441
-0.093752384 0.11820953 1.062292 4279112723
-0.085600004 0.11820953 1.0630637 4279440147
-0.077664763 0.11820953 1.0638348 4279440147
-0.069489524 0.11854096 1.0654503 4279636755
-0.061542857 0.11854096 1.0662007 4279571733
-0.053139053 0.11854096 1.0669492 4279440150
-0.04513143 0.11898285 1.0687283 4279505940
-0.037165716 0.11898285 1.0701816 4279440920
-0.028800001 0.11931429 1.0702109 4279441432
-0.020571429 0.11931429 1.0702405 4279573020
-0.012342858 0.11931429 1.0702704 4280955176
-0.004114286 0.11931429 1.0703008 4280756008
0.004114286 0.11931429 1.0703315 4290825413
0.012788572 0.12362287 1.0833338 4285692279
0.021314286 0.12362287 1.0833876 4278519819
0.029840002 0.12362287 1.083442 4278849043
0.03812572 0.12284954 1.0817611 4279178516
0.04643048 0.12240762 1.0790496 4279310107
0.054872382 0.1220762 1.0791023 4279310358
0.063142858 0.1220762 1.0780631 4279310103
0.071302861 0.1216343 1.076737 4279310104
0.079401903 0.1216343 1.0754915 4279178522
0.087200001 0.12086096 1.0746186 4279244060
0.095241904 0.12008762 1.0729135 4279244571
0.10323811 0.12008762 1.0714953 4279703321
0.11149716 0.1197562 1.0700631 4279310107
0.11898285 0.11931429 1.068074 4279573017
0.1267162 0.11854096 1.0662262 4279573279
0.13489145 0.11820953 1.0638551 4279639068
0.14266667 0.11820953 1.0617416 4279901212
0.15039618 0.11787809 1.0607829 4279968037
0.15852572 0.11743619 1.058481 4280361256
0.1660305 0.11743619 1.0556328 4280362026
0.17314667 0.11710477 1.0531315 4280231466
0.18120001 0.11644191 1.0505557 4280558378
0.1887162 0.11644191 1.0479208 4280494125
0.19674666 0.11600001 1.0465988 4280363048
0.20283429 0.11533715 1.0421009 4280428588
0.21018286 0.11500572 1.0381987 4280100907
0.21811429 0.11500572 1.0368358 4280363046
0.22539431 0.1146743 1.0341368 4280100391
0.23240381 0.11390095 1.0309973 4280034338
0.23958477 0.11390095 1.028211 4280034593
0.24672 0.11390095 1.0266306 4279902243
0.25455236 0.11356952 1.0236263 4280033826
0.26085335 0.11257525 1.0205138 4279902240
0.26785144 0.11224381 1.015875 4279902240
0.27480382 0.11224381 1.0126201 4279836451
0.28171048 0.11191238 1.0093551 4280033053
0.28942856 0.11191238 1.0075182 4279639327
0.29626665 0.11158095 1.0042861 4279900704
0.30305907 0.11124954 1.0024484 4279900448
0.30980572 0.1109181 0.99932009 4279835162
0.31555808 0.11025524 0.99557483 4279703324
0.3231619 0.11025524 0.99306458 4279441430
0.32977143 0.10992382 0.99054468 4279310358
0.33633524 0.10959239 0.98918891 4279506714
0.34216002 0.10904 0.98553115 4279506453
0.34861714 0.10904 0.98341858 4279244566
0.3561143 0.10870858 0.98098034 4279178772
0.36250287 0.10870858 0.97956455 4279571733
0.36771429 0.10771429 0.97539568 4279374872
0.37437335 0.10771429 0.97395277 4279243030
0.38178667 0.10749333 0.9718827 4279440147
0.38680002 0.10683048 0.96950662 4279374101
0.39294475 0.10649905 0.96624529 4279440147
0.39945909 0.10649905 0.96481979 4279047186
0.40678859 0.10627811 0.96282512 4279374104
0.41282669 0.10594667 0.96125031 4279112722
0.42013335 0.10594667 0.96048635 4279375124
0.42610288 0.10561524 0.9588474 4279505688
0.43248004 0.1053943 0.95745873 4279636246
0.43698287 0.10473144 0.95576853 4279112472
0.44326857 0.10451048 0.95352674 4279375124
0.45047623 0.10451048 0.95260793 4279505946
0.45623237 0.10417905 0.95088285 4279178267
0.46194288 0.10384762 0.94989455 4279178520
0.46810669 0.10362667 0.94768995 4279505948
0.47272003 0.10329524 0.94599605 4279309852
0.47982857 0.10274286 0.94453841 4279244051
0.48171809 0.10196953 0.94259596 4279375381
0.48875052 0.10196953 0.94128668 4279309852
0.49417144 0.10163809 0.94016641 4279637275
0.49767619 0.10163809 0.93954813 4282799730
nan nan 1.3009257 5200253
nan nan 1.300953 6183039
nan nan 1.3009812 7100419
nan nan 1.3010103 12493481
nan nan 1.3010404 7417140
nan nan 1.3010719 8472906
nan nan 1.3011043 9407368
nan nan 1.301138 16514813
nan nan 1.3016624 197379
nan nan 1.3015995 770
nan nan 1.3015348 770
nan nan 1.3014685 197379
nan nan 1.3014005 770
nan nan 1.301331 196866
nan nan 1.3012596 770
nan nan 1.3011864 772
nan nan 1.3011115 770
nan nan 1.3010345 65793
nan nan 1.3009554 770
-0.51042289 0.11514286 0.98987877 4278387459
-0.50142854 0.11514286 0.98970383 4278782217
-0.49400002 0.11514286 0.98995197 4278979333
-0.4895657 0.11585143 0.99103522 4278650887
-0.48356572 0.11620572 0.99172097 4278716425
-0.47752002 0.11656 0.99319381 4278716937
-0.47000003 0.11656 0.99399704 4278782730
-0.46341714 0.11656 0.99477053 4278651658
-0.45726478 0.11715048 0.99673122 4278782729
-0.44970667 0.11715048 0.99747372 4278586121
-0.44214857 0.11715048 0.9981885 4278781967
-0.4359048 0.11750477 0.99965537 4278913803
-0.42961523 0.11750477 1.0011233 4278651914
-0.42201144 0.11785905 1.0017787 4278783500
-0.41440764 0.11750477 1.0024103 4278914314
-0.40802667 0.11750477 1.0038365 4278979596
-0.4016 0.11821334 1.004427 4278979596
-0.39395052 0.11821334 1.0049963 4279045136
-0.38630098 0.11856763 1.0063735 4278848266
-0.37865144 0.11856763 1.0069042 4278783500
-0.37211052 0.11856763 1.0078843 4279176204
-0.36443812 0.11856763 1.0097268 4278979602
-0.35676575 0.11892191 1.0107216 4278979852
-0.3501333 0.11892191 1.0117154 4279045389
-0.3424381 0.11927619 1.0135957 4279045387
-0.33573717 0.11927619 1.0154773 4278848524
-0.32899049 0.11963047 1.0164731 4278849548
-0.32219809 0.11963047 1.0192019 4279045134
-0.31443429 0.12033905 1.0201788 4278979344
-0.30667049 0.12033905 1.0211477 4278979600
-0.29978669 0.12033905 1.0229352 4278784011
-0.29285717 0.12104763 1.024675 4279111182
-0.28504762 0.12104763 1.0255921 4279045645
-0.27804953 0.12104763 1.0272497 4279110926
-0.27100572 0.12175619 1.0288429 4279045138
-0.26315048 0.12175619 1.0298324 4279373325
-0.2560381 0.12175619 1.0315794 4279110926
-0.24816002 0.12211048 1.0325885 4278849293
-0.24121146 0.12211048 1.033605 4278914579
-0.23397714 0.12258286 1.0367408 4279111187
-0.22604571 0.12293714 1.0377853 4279177229
-0.21874286 0.12293714 1.0397819 4278850061
-0.21078858 0.12329143 1.0408331 4279176978
-0.20283429 0.12329143 1.0418861 4279111694
-0.19544001 0.12364572 1.0438989 4279176975
-0.18800001 0.12364572 1.0449477 4279373589
-0.18000001 0.12400001 1.0469497 4279242767
-0.17314667 0.12400001 1.0492557 4279308566
-0.16556191 0.12518096 1.0521686 4279046416
-0.15748572 0.12518096 1.0531294 4279374354
-0.14940953 0.12518096 1.0539171 4279374354
-0.14133334 0.12518096 1.054708 4279308818
-0.13325715 0.12518096 1.0555024 4279570963
-0.12553525 0.12553525 1.0572284 4279374355
-0.11743619 0.12553525 1.0580236 4279374354
-0.10974857 0.12600762 1.0600394 4279440147
-0.10190476 0.12636191 1.0617269 4279243538
-0.094015241 0.1267162 1.0633856 4279375123
-0.085600004 0.12636191 1.0632741 4279440147
-0.077664763 0.1267162 1.0649 4279440147
-0.069489524 0.1267162 1.0656548 4279505940
-0.061314289 0.1267162 1.0664079 4279637526
-0.053337146 0.1267162 1.0671593 4279571735
-0.045257144 0.12718858 1.0689286 4279571734
-0.037165716 0.12754285 1.0713392 4279572246
-0.028906669 0.12801525 1.0713776 4279376151
-0.020647621 0.12801525 1.0714165 4279572761
-0.012388572 0.12754285 1.0714558 4280954921
-0.004114286 0.12754285 1.0704935 4280757037
0.002057143 0.12754285 1.0705241 4290300096
0.012788572 0.13262095 1.0847983 4285692279
0.021314286 0.13214858 1.0830642 4278716430
0.029840002 0.13214858 1.0831175 4279176729
0.038228571 0.13214858 1.0831715 4279243544
0.046598099 0.13132192 1.0803835 4279310362
0.055070482 0.13084953 1.0804367 4279506972
0.063314289 0.13084953 1.0790105 4279637788
0.071561903 0.13002285 1.0780146 4279310108
0.079401903 0.12955047 1.0767436 4279572247
0.087520011 0.1291962 1.07555 4279571484
0.095241904 0.12872382 1.0729966 4279310106
0.10323811 0.12836951 1.0716029 4279375643
0.11149716 0.12801525 1.0701958 4279703322
0.11931429 0.12754285 1.0682293 4279638047
0.12718858 0.12754285 1.0675073 4279573023
0.13539429 0.1267162 1.0655934 4280032541
0.14266667 0.12636191 1.0619408 4279770659
0.15081905 0.12600762 1.0609732 4279902244
0.15852572 0.12600762 1.0586849 4280361509
0.16665524 0.12600762 1.0576078 4280296746
0.17412953 0.12518096 1.0547009 4280493606
0.18120001 0.12482667 1.0521499 4280231460
0.1887162 0.12447238 1.0481912 4280297258
0.19674666 0.12447238 1.0468609 4280494376
0.20341715 0.12400001 1.0437157 4280495149
0.21078858 0.12329143 1.0398151 4280495151
0.21811429 0.12293714 1.0371679 4280822831
0.22539431 0.12293714 1.0357485 4280691756
0.23240381 0.12211048 1.0313629 4280691245
0.23958477 0.12175619 1.0285822 4280428842
0.24744001 0.12175619 1.0269941 4280362024
0.25455236 0.12140191 1.0239915 4280034082
0.26085335 0.12069334 1.0208814 4280295718
0.26785144 0.12033905 1.0162531 4280033569
0.27480382 0.11998476 1.0130005 4279968032
0.28254476 0.11998476 1.0111648 4280229922
0.29028574 0.11963047 1.0093056 4279705116
0.29714665 0.11927619 1.006039 4279770652
0.3039619 0.11927619 1.0028281 4279901211
0.30980572 0.11856763 0.9997043 4279639067
0.31650665 0.11821334 0.99596542 4279441436
0.3231619 0.11785905 0.99345499 4279310359
0.33076572 0.11785905 0.99212599 4279638039
0.3373524 0.11750477 0.98957491 4279244310
0.34285334 0.11679619 0.98592073 4279571733
0.34968004 0.11656 0.98380786 4279506197
0.3561143 0.11620572 0.98239309 4279178516
0.36361146 0.11620572 0.979954 4279374873
0.36884573 0.11549714 0.97760862 4279440147
0.37514287 0.11514286 0.97435534 4279112467
0.38178667 0.11490668 0.97228944 4279112722
0.38800001 0.1141981 0.97081935 4279374101
0.39416766 0.1141981 0.9675653 4279374354
0.40028954 0.11384381 0.96524465 4279308566
0.40678859 0.11360763 0.96325564 4279308568
0.41282669 0.11325334 0.96168077 4279440147
0.42013335 0.11325334 0.96091509 4279440148
0.42610288 0.11289905 0.96011138 4279374104
0.43248004 0.11266286 0.95788586 4279439641
0.43836573 0.11230858 0.95619428 4279505428
0.44420576 0.1117181 0.95448619 4279571220
0.45047623 0.1117181 0.95303035 4279571740
0.45623237 0.11136381 0.95130318 4279571480
0.46341714 0.11100953 0.95031464 4279571483
0.46810669 0.11100953 0.94857317 4279637274
0.47373337 0.11077333 0.94707155 4279571991
0.47982857 0.10982858 0.94536364 4279308566
0.48276192 0.1092381 0.94302332 4279440409
0.48875052 0.1092381 0.94194275 4279440668
0.49509525 0.10864762 0.94060183 4279637537
0.49767619 0.10864762 0.93998724 4283519505
nan nan 1.3011738 5593711
nan nan 1.3011947 6248786
nan nan 1.3012164 7560243
nan nan 1.3012389 12231812
nan nan 1.3012624 8207156
nan nan 1.3012865 8670285
nan nan 1.3013111 9075584
nan nan 1.3013372 16711422
nan nan 1.3016683 197632
nan nan 1.3016051 66563
nan nan 1.3015406 197379
nan nan 1.3014745 66563
nan nan 1.3014067 131586
nan nan 1.3013371 196866
nan nan 1.301266 65793
nan nan 1.301193 65793
nan nan 1.3011179 65793
nan nan 1.3010411 131075
nan nan 1.3009623 196866
-0.51042289 0.12108572 0.98978502 4278387459
-0.50142854 0.12257142 0.98956996 4278651144
-0.49552003 0.12257142 0.9898212 4278782988
-0.49106288 0.12332572 0.9909898 4278454535
-0.48543999 0.12370285 0.99238122 4278520328
-0.47848764 0.12408001 0.9932068 4278651657
-0.47095236 0.12408001 0.99400192 4278782729
-0.46341714 0.12433143 0.99525911 4278651914
-0.45864764 0.12470857 0.99754292 4278782729
-0.45106667 0.12508573 0.99829018 4278782217
-0.44348574 0.12470857 0.99900925 4278782217
-0.4359048 0.12508573 0.99970108 4278651658
-0.42961523 0.12546286 1.0011909 4278782729
-0.42201144 0.12546286 1.00184 4278848271
-0.41565335 0.12546286 1.0033069 4278783499
-0.40924954 0.12584001 1.0039138 4278848272
-0.4016 0.12584001 1.0053515 4278848272
-0.39395052 0.12584001 1.0059168 4278913804
-0.38630098 0.12621716 1.0064619 4278848528
-0.37865144 0.12621716 1.0069877 4278914572
-0.37211052 0.12659429 1.0088253 4278914060
-0.36443812 0.12659429 1.0098048 4278979340
-0.35782856 0.12697142 1.011681 4278848272
-0.3501333 0.12697142 1.0126679 4278979344
-0.34345523 0.12697142 1.0136523 4278979596
-0.33573717 0.12734857 1.0155442 4278979852
-0.32899049 0.12734857 1.0174267 4278979852
-0.32219809 0.12772571 1.0192895 4279045133
-0.31443429 0.12810287 1.0202522 4278979346
-0.30757335 0.12810287 1.0212072 4278979858
-0.30066669 0.12848 1.0230063 4278979852
-0.29371428 0.12923428 1.025566 4279045394
-0.28588191 0.12923428 1.0264554 4279111443
-0.27804953 0.12923428 1.0273335 4279111439
-0.27100572 0.12923428 1.0289401 4279110932
-0.26315048 0.12961142 1.029914 4279307535
-0.2560381 0.12961142 1.0316677 4279242254
-0.24816002 0.12998858 1.0326619 4279111444
-0.24121146 0.12998858 1.0336635 4279045908
-0.23397714 0.13049145 1.0368277 4279177231
-0.22604571 0.13086857 1.0378585 4279242768
-0.21811429 0.13086857 1.0388929 4278849550
-0.21078858 0.13124572 1.0408987 4279177490
-0.20341715 0.13124572 1.0429226 4279177487
-0.19544001 0.13162287 1.0439595 4279372821
-0.18746287 0.13162287 1.0449967 4279373586
-0.18000001 0.132 1.0470086 4279111696
-0.17314667 0.13250287 1.0503201 4279242518
-0.16556191 0.13325715 1.0522795 4279177237
-0.15748572 0.13325715 1.0532324 4279112723
-0.14940953 0.13325715 1.0540115 4279374354
-0.14173333 0.13325715 1.0547943 4279440147
-0.13325715 0.13325715 1.0555807 4279439640
-0.12553525 0.1336343 1.0573211 4279374103
-0.11787809 0.1336343 1.0593684 4279308818
-0.11005715 0.13413715 1.0601468 4279440147
-0.10219049 0.13451429 1.0618494 4279440150
-0.094015241 0.13489145 1.0635234 4279112467
-0.085840002 0.13451429 1.0642756 4279308819
-0.077664763 0.13451429 1.0650265 4279439893
-0.069748573 0.13489145 1.0669076 4279505690
-0.061542857 0.13539429 1.0676295 4279440148
-0.053337146 0.13539429 1.0683486 4279571482
-0.045257144 0.13539429 1.0698395 4279768343
-0.037165716 0.13577144 1.0715166 4279702551
-0.028906669 0.13627429 1.071556 4279441180
-0.020647621 0.13627429 1.0715963 4279637527
-0.012388572 0.13627429 1.0716368 4280626214
-0.0041295243 0.13627429 1.0716779 4280953648
0.0020647622 0.13665144 1.0724854 4289512376
0.012834285 0.14155428 1.0865104 4281749079
0.021314286 0.14067429 1.0851271 4283588456
0.029840002 0.14067429 1.0833843 4281614145
0.038365718 0.14067429 1.0834383 4279505439
0.046723809 0.14017144 1.083493 4279768859
0.054872382 0.13929144 1.0806898 4279441443
0.063542865 0.13929144 1.0792555 4279507480
0.071561903 0.13841145 1.0793092 4279441691
0.079401903 0.13790858 1.0769759 4279375895
0.087760001 0.13790858 1.0757753 4279310107
0.095855244 0.13702857 1.0743601 4279637784
0.10352381 0.13665144 1.0726478 4279638041
0.11149716 0.13627429 1.0712162 4279637788
0.11931429 0.13577144 1.0684354 4279769374
0.12754285 0.13577144 1.0677189 4279573279
0.13539429 0.13489145 1.0658033 4279573024
0.14266667 0.13451429 1.0621405 4279900961
0.15081905 0.13451429 1.0611806 4279836196
0.15897144 0.13451429 1.060185 4280032804
0.16665524 0.13413715 1.0578234 4280098597
0.17412953 0.1336343 1.0549163 4279968545
0.1817143 0.13288 1.0523671 4280427558
0.1887162 0.13250287 1.04975 4280756265
0.19674666 0.13250287 1.0470808 4280561194
0.20400001 0.132 1.0457221 4280889904
0.2113943 0.13124572 1.0413308 4281217841
0.21874286 0.13086857 1.0386678 4281087029
0.22604571 0.13086857 1.0359579 4281152049
0.23330288 0.13049145 1.0332139 4281151537
0.24028191 0.12961142 1.0300421 4281085999
0.24744001 0.12961142 1.0271909 4280954669
0.25455236 0.12923428 1.0241872 4280823344
0.26161906 0.12885717 1.0224853 4280363308
0.26864001 0.12848 1.0178796 4279969571
0.27480382 0.12810287 1.0146282 4280033830
0.28254476 0.12772571 1.0113508 4280295456
0.29114285 0.12772571 1.0094914 4280033568
0.29714665 0.12734857 1.0062203 4279902495
0.3039619 0.12697142 1.0030041 4279639325
0.31073147 0.12659429 0.99987447 4279377945
0.31745526 0.12621716 0.99737018 4279638302
0.32413337 0.12584001 0.9948349 4279376151
0.33076572 0.12546286 0.99228215 4279310107
0.3373524 0.12508573 0.98972607 4279572251
0.34285334 0.12470857 0.98718196 4279572245
0.35038859 0.12433143 0.9846639 4279506196
0.3561143 0.12370285 0.98253202 4279440661
0.36361146 0.12370285 0.98008907 4279440152
0.36997715 0.12294858 0.97774154 4279374099
0.37514287 0.12257142 0.9753933 4279374355
0.38178667 0.12232 0.97302532 4279309074
0.38920003 0.12232 0.97095156 4279243539
0.39539048 0.12194286 0.96858686 4279046930
0.40028954 0.12118858 0.96624786 4279374610
0.40678859 0.12093715 0.96395212 4279374614
0.41282669 0.12093715 0.96265924 4279047189
0.42013335 0.12093715 0.96188968 4279440148
0.42610288 0.12018286 0.96024752 4279308568
0.43338665 0.11993144 0.95857418 4279243032
0.43836573 0.11955429 0.95714873 4279440149
0.44420576 0.11892571 0.95461971 4279309336
0.45047623 0.11892571 0.9531635 4279439896
0.45623237 0.11854857 0.95143557 4279701783
0.46194288 0.11817144 0.95044786 4279636506
0.4691048 0.11817144 0.94870573 4279637020
0.47525334 0.11792 0.94720435 4279637530
0.47907621 0.11691429 0.94508475 4279111958
0.48432761 0.11666286 0.94349408 4279309595
0.48980957 0.11628572 0.94207937 4279309850
0.49777144 0.11628572 0.94125557 4281016096
nan nan 1.301212 5851161
nan nan 1.301231 6507798
nan nan 1.3012505 7559455
nan nan 1.3012706 9535588
nan nan 1.3012913 8338464
nan nan 1.3013132 8339005
nan nan 1.3013353 9263955
nan nan 1.3013587 9074807
nan nan 1.301383 16711422
nan nan 1.3016739 197379
nan nan 1.3016107 131586
nan nan 1.301546 66817
nan nan 1.3014802 770
nan nan 1.3014122 131586
nan nan 1.301343 770
nan nan 1.3012719 513
nan nan 1.3011992 131586
nan nan 1.3011246 131586
nan nan 1.3010482 131586
nan nan 1.3009696 131586
-0.50624764 0.12814286 0.98879075 4278387459
-0.50297141 0.13 0.98943299 4278585863
-0.49552003 0.13040002 0.99021131 4278586121
-0.49106288 0.13080001 0.99094307 4278454024
-0.48543999 0.1312 0.99240357 4278585859
-0.47848764 0.13186668 0.99370772 4278520071
-0.47238097 0.13186668 0.99526751 4278585865
-0.46433336 0.13186668 0.99527627 4278586377
-0.45726478 0.13226667 0.99680889 4278651405
-0.45106667 0.13266666 0.99835169 4278716425
-0.44348574 0.13266666 0.99906319 4278782217
-0.4359048 0.13266666 0.99974805 4278717193
-0.43090668 0.13306667 1.00126 4278717193
-0.42201144 0.13306667 1.0019028 4278782218
-0.41565335 0.13306667 1.0033922 4278782222
-0.40924954 0.13346666 1.0039932 4278913546
-0.4016 0.13386668 1.0054532 4278914060
-0.39395052 0.13386668 1.0060129 4278651914
-0.38630098 0.13386668 1.0065526 4278651658
-0.37865144 0.13386668 1.0070733 4278651659
-0.37211052 0.13426667 1.0089221 4278979344
-0.36443812 0.13426667 1.0098848 4278848524
-0.35782856 0.13466667 1.0117717 4278783244
-0.3501333 0.13466667 1.0127422 4278783244
-0.34345523 0.13506667 1.0146438 4278783500
-0.33673143 0.13506667 1.0165411 4278782988
-0.32996193 0.13546667 1.0175061 4278783250
-0.32314667 0.13586667 1.0193795 4278979346
-0.31443429 0.13586667 1.0203277 4278979346
-0.30757335 0.13626668 1.0221558 4278979853
-0.29978669 0.13626668 1.0230793 4278979859
-0.29371428 0.13666669 1.0248436 4279111187
-0.28588191 0.13706666 1.0265538 4279111182
-0.27804953 0.13706666 1.0274197 4278850061
-0.27100572 0.13746667 1.0290402 4279110932
-0.26391619 0.13746667 1.0299981 4279373327
-0.2560381 0.13746667 1.0317589 4279176980
-0.24816002 0.13786668 1.0327377 4278849807
-0.24121146 0.1384 1.0349543 4279177487
-0.23397714 0.13880001 1.0369174 4279177743
-0.22669715 0.1392 1.0389191 4279176725
-0.21874286 0.1392 1.0399413 4279111188
-0.21078858 0.1392 1.040966 4279176724
-0.20341715 0.13959999 1.0429972 4279439634
-0.19544001 0.13959999 1.044022 4279373590
-0.18746287 0.13959999 1.0450475 4279242514
-0.18000001 0.13959999 1.0470693 4279046672
-0.17314667 0.14053333 1.0504215 4279111958
-0.16556191 0.14093335 1.0523942 4279176981
-0.15748572 0.14133334 1.053339 4279374354
-0.14983238 0.14133334 1.0550931 4279439888
-0.14173333 0.14173333 1.0558648 4279439896
-0.1336343 0.14173333 1.0566394 4279374104
-0.12553525 0.14173333 1.0574169 4279439383
-0.11787809 0.14173333 1.0594869 4279440149
-0.11005715 0.14266667 1.0612154 4279374102
-0.10219049 0.14306667 1.0629196 4279047190
-0.094015241 0.14306667 1.0636666 4279112723
-0.085840002 0.14306667 1.0644127 4279112466
-0.077664763 0.14306667 1.0651577 4279112725
-0.069748573 0.1436 1.0670635 4279505945
-0.061542857 0.1436 1.0677804 4279178516
-0.053337146 0.1436 1.068495 4279506198
-0.045257144 0.1436 1.0700036 4279309845
-0.037165716 0.14400001 1.0717013 4279571734
-0.028986666 0.14453334 1.0725125 4279571992
-0.020704761 0.14493334 1.0725547 4279638296
-0.012422858 0.14493334 1.0725971 4280757282
-0.0041295243 0.14453334 1.0718677 4280888877
0.0020704763 0.14493334 1.0726842 4288790455
0.012868572 0.15013333 1.0868016 4285298286
0.021390477 0.14920001 1.0854125 4281416002
0.029840002 0.14920001 1.0836617 4281152052
0.038365718 0.14866666 1.0837157 4279572768
0.046891432 0.14866666 1.0837702 4279573280
0.055070482 0.14826667 1.0809532 4279769888
0.063314289 0.14773335 1.0810081 4279573024
0.071756192 0.14733332 1.0795658 4279507231
0.079691432 0.14733332 1.0785592 4279638044
0.088080004 0.14626667 1.077273 4279441692
0.095504768 0.14533333 1.0745935 4279310621
0.10352381 0.14493334 1.0720397 4279441688
0.11180571 0.14493334 1.0714443 4279637276
0.11931429 0.14453334 1.0699981 4279637534
0.12754285 0.14400001 1.0679414 4279507481
0.13539429 0.14306667 1.0660238 4279507487
0.14266667 0.14266667 1.0623507 4279900191
0.15081905 0.14306667 1.0626625 4279769376
0.15941715 0.14266667 1.0617149 4279638816
0.16712382 0.14226668 1.059386 4280032034
0.17478476 0.14173333 1.0569513 4279901728
0.18222858 0.14133334 1.0539639 4280558886
0.18925333 0.14093335 1.0499817 4280494125
0.19674666 0.14053333 1.0486799 4280430123
0.20400001 0.14000002 1.0459621 4280693040
0.2113943 0.13959999 1.0415598 4281086255
0.21874286 0.1392 1.0388941 4281086768
0.22604571 0.1392 1.0374926 4280889907
0.23397714 0.13880001 1.0347192 4281151537
0.24028191 0.13786668 1.0319176 4280824109
0.24744001 0.13746667 1.027401 4281020210
0.25455236 0.13706666 1.0257739 4281019954
0.26238474 0.13706666 1.0226964 4280954673
0.26864001 0.13626668 1.0195218 4280953899
0.27561527 0.13586667 1.0148305 4280232487
0.28254476 0.13546667 1.0115496 4279969055
0.29114285 0.13546667 1.0111154 4279772447
0.29802668 0.13546667 1.0078062 4279902244
0.3039619 0.13466667 1.0045359 4279901981
0.31073147 0.13426667 1.0013369 4279573531
0.31745526 0.13386668 0.99881822 4279769625
0.32510477 0.13386668 0.99625987 4279637787
0.33076572 0.13306667 0.99367642 4279571482
0.3373524 0.13266666 0.98988885 4279637270
0.34389335 0.13226667 0.98733956 4279571733
0.35038859 0.13186668 0.98481661 4279440152
0.35720003 0.13160001 0.98268175 4279440403
0.36361146 0.1312 0.98023462 4279439891
0.36997715 0.13080001 0.97788465 4279374104
0.37629718 0.13040002 0.97553551 4279242771
0.38257143 0.13 0.97316718 4279243278
0.38920003 0.12973334 0.97109443 4279177230
0.39661336 0.12973334 0.9696101 4279111445
0.40153527 0.12933333 0.96725464 4278980879
0.40763429 0.12853333 0.96409965 4279308309
0.41411811 0.12826668 0.9628064 4279047189
0.42144763 0.12826668 0.96203715 4279046936
0.42610288 0.12746668 0.96039462 4279439640
0.43338665 0.12746668 0.95872068 4279178008
0.43836573 0.1268 0.957295 4279374104
0.44420576 0.12640001 0.95476365 4279374105
0.45047623 0.12613334 0.95383292 4279374104
0.45768383 0.12613334 0.9523437 4279374616
0.46341714 0.12573333 0.9505918 4279440411
0.4691048 0.12533334 0.94955623 4279637272
0.47525334 0.12506667 0.94779384 4279637276
0.47805142 0.12373333 0.94522703 4279244053
0.48432761 0.12333335 0.94385362 4279309850
0.48980957 0.12333335 0.94222724 4279571738
0.49777144 0.12084571 0.94159877 4279900200
nan nan 1.3012704 6641181
nan nan 1.3012877 6771481
nan nan 1.3013055 6838016
nan nan 1.3013244 11837591
nan nan 1.3013437 7151397
nan nan 1.3013636 8075854
nan nan 1.3013844 9789270
nan nan 1.301406 7623257
nan nan 1.3014282 16711422
nan nan 1.30168 66563
nan nan 1.3016168 772
nan nan 1.3015523 66817
nan nan 1.301486 772
nan nan 1.3014185 515
nan nan 1.3013492 2
nan nan 1.3012784 131073
nan nan 1.3012056 513
nan nan 1.3011314 515
nan nan 1.3010548 770
nan nan 1.3009769 772
-0.50468189 0.13445905 0.98735052 4278387714
-0.50142854 0.13742857 0.9892922 4278650887
-0.49552003 0.13742857 0.99011832 4278782729
-0.4895657 0.13785143 0.99089521 4278519564
-0.48602286 0.13869715 0.9929207 4278454535
-0.47848764 0.13940191 0.99374247 4278585863
-0.47238097 0.13940191 0.99532455 4278782218
-0.46530095 0.13982476 0.9961015 4278782473
-0.45864764 0.14024763 0.99768299 4278782727
-0.45106667 0.13982476 0.9984147 4278716679
-0.44482288 0.14024763 0.99911851 4278782217
-0.43721905 0.14024763 1.0006709 4278717193
-0.43090668 0.14067048 1.0022216 4278586121
-0.42328003 0.14109334 1.0028627 4278586377
-0.41689906 0.14109334 1.0034798 4278782730
-0.40924954 0.14151619 1.0049827 4278848010
-0.4016 0.14151619 1.0055578 4278848271
-0.39512765 0.14151619 1.0061116 4278652171
-0.38745525 0.14151619 1.0066457 4278979344
-0.37978289 0.14151619 1.0080749 4278979596
-0.37211052 0.14193906 1.0090212 4278979596
-0.36635622 0.14193906 1.0109086 4278913545
-0.35889143 0.14278476 1.0128131 4278913807
-0.3501333 0.14236189 1.0128186 4278979596
-0.34345523 0.14236189 1.0137706 4278782988
-0.33673143 0.14278476 1.0156839 4278783245
-0.32899049 0.14320762 1.0175878 4278979852
-0.32314667 0.14320762 1.0194721 4278979596
-0.31536001 0.14405334 1.0213274 4278783243
-0.30757335 0.14405334 1.0222453 4278979858
-0.29978669 0.14405334 1.0231547 4278914834
-0.29371428 0.14405334 1.0249316 4279111182
-0.28671619 0.14489904 1.0266548 4279111182
-0.27886096 0.14489904 1.0275085 4279111183
-0.27100572 0.14532191 1.0291435 4279110931
-0.26391619 0.14532191 1.0308985 4279242260
-0.2560381 0.14574477 1.0318532 4279373845
-0.24816002 0.14574477 1.0328161 4279111694
-0.24190857 0.14630859 1.0350425 4279177742
-0.23397714 0.14673144 1.03701 4279242518
-0.22669715 0.14715429 1.039017 4279373077
-0.21874286 0.14715429 1.040025 4279110932
-0.21078858 0.14715429 1.0410359 4279243024
-0.20341715 0.14757715 1.0430748 4279243024
-0.19544001 0.14757715 1.0440867 4279242768
-0.18746287 0.14757715 1.0451 4279177744
-0.18000001 0.14757715 1.0471323 4279374354
-0.17363811 0.14856382 1.0505264 4279439635
-0.16556191 0.14940953 1.0525128 4279439122
-0.15748572 0.14940953 1.0534493 4279374098
-0.14983238 0.14940953 1.055218 4279440147
-0.14173333 0.14983238 1.055981 4279308830
-0.1336343 0.14983238 1.0567471 4279308824
-0.12553525 0.14983238 1.0575165 4279440147
-0.11787809 0.15039618 1.0596098 4279440147
-0.11005715 0.15081905 1.0613542 4279308566
-0.10219049 0.15124191 1.0630747 4279112978
-0.094015241 0.15124191 1.0638151 4279178516
-0.085840002 0.15124191 1.0645549 4279112979
-0.077664763 0.15124191 1.0652943 4279440402
-0.069942862 0.15180571 1.0681109 4279440660
-0.061714288 0.15222858 1.0688016 4279178516
-0.053485718 0.15222858 1.0694895 4279571476
-0.045424767 0.15222858 1.0701746 4279571483
-0.037268572 0.15279239 1.0726718 4279440926
-0.028986666 0.15321524 1.0727147 4279441694
-0.020704761 0.15321524 1.0727577 4279639320
-0.012457143 0.15321524 1.0728018 4280297256
-0.0041409526 0.15321524 1.0728464 4280757550
0.0041409526 0.15321524 1.0728917 4289771954
0.012834285 0.15871239 1.0871043 4284046677
0.021390477 0.15828954 1.0857093 4281349459
0.029840002 0.15828954 1.085763 4281746250
0.038502857 0.15828954 1.0858175 4279902499
0.046891432 0.15716191 1.0840591 4279902758
0.055070482 0.15673907 1.0824234 4279771177
0.063314289 0.15617524 1.0812837 4279900964
0.071756192 0.15617524 1.0798342 4279770659
0.079980955 0.15575239 1.078822 4279573537
0.088080004 0.15462476 1.0788786 4279639065
0.095855244 0.15420192 1.074838 4279573279
0.10380952 0.15363809 1.073118 4279507230
0.11180571 0.15363809 1.0725394 4279441180
0.1197562 0.15321524 1.071068 4279637790
0.12754285 0.15279239 1.0695825 4279375895
0.13539429 0.15180571 1.0674409 4279572510
0.14306667 0.15124191 1.0654444 4279638558
0.15124191 0.15124191 1.0645977 4279834654
0.15941715 0.15124191 1.0619599 4279573280
0.16712382 0.15081905 1.0596327 4279835427
0.17478476 0.15039618 1.0572003 4279770403
0.18222858 0.14983238 1.0542134 4280033824
0.18979049 0.14940953 1.0516046 4280231460
0.19730668 0.14898667 1.0489339 4280363048
0.20477715 0.14856382 1.0462172 4280495403
0.2113943 0.14757715 1.043151 4280692524
0.21874286 0.14715429 1.0391349 4281085999
0.22669715 0.14715429 1.0377377 4280889647
0.23397714 0.14673144 1.0349605 4281020466
0.24028191 0.14574477 1.0321547 4281020718
0.24744001 0.14532191 1.0276256 4281151025
0.25529525 0.14532191 1.0260013 4280823857
0.26238474 0.14489904 1.0229223 4280824109
0.26864001 0.14447621 1.0197456 4280824108
0.27642667 0.14447621 1.0179454 4280954669
0.28337905 0.14363049 1.013207 4280363565
0.29114285 0.14363049 1.0113337 4279970084
0.29802668 0.14320762 1.0094266 4279968295
0.30486476 0.14236189 1.0047435 4279902495
0.31165713 0.14236189 1.0015382 4279705117
0.31840384 0.14193906 0.9990145 4279573272
0.32607621 0.14151619 0.99773192 4279441688
0.33176002 0.14067048 0.99386215 4279310102
0.33836952 0.14067048 0.9912625 4279376399
0.34389335 0.13982476 0.98866737 4279571477
0.35038859 0.13940191 0.98609197 4279440148
0.35720003 0.13912 0.98284358 4279440403
0.36361146 0.13912 0.98139882 4279440147
0.37110856 0.13869715 0.97894901 4279439891
0.37629718 0.13785143 0.97658479 4279374354
0.38257143 0.13742857 0.97332048 4279374354
0.38920003 0.13714668 0.97184426 4278915856
0.39661336 0.13714668 0.96976656 4279046676
0.40278095 0.1367238 0.96741247 4279243280
0.40763429 0.1358781 0.96509498 4279308310
0.41411811 0.1355962 0.96296597 4279308311
0.42144763 0.1355962 0.96219689 4279308568
0.42694479 0.13517334 0.96055365 4279308310
0.43338665 0.13475049 0.95887911 4279439898
0.43974859 0.13446857 0.95745319 4279046934
0.44561145 0.13404572 0.95653749 4279374618
0.45142859 0.13404572 0.95478123 4279243542
0.45768383 0.13334095 0.95301336 4279635999
0.46341714 0.13334095 0.95148969 4279440667
0.47060192 0.13291809 0.94971323 4279637276
0.47626668 0.13249524 0.94862676 4279637788
0.47982857 0.13108572 0.94579548 4279112732
0.48432761 0.13108572 0.94401044 4279505690
0.48963046 0.1293143 0.94270706 4279571227
nan nan 1.3013126 1447196
nan nan 1.3013281 1971464
nan nan 1.3013444 6969362
nan nan 1.3013608 6772497
nan nan 1.3013781 13483972
nan nan 1.3013958 8601405
nan nan 1.3014143 8866122
nan nan 1.3014331 9723738
nan nan 1.3014531 6108737
nan nan 1.3014736 16711422
nan nan 1.3016857 131586
nan nan 1.3016225 197379
nan nan 1.3015581 66563
nan nan 1.301492 770
nan nan 1.3014246 770
nan nan 1.3013552 770
nan nan 1.3012848 65793
nan nan 1.3012124 513
nan nan 1.301138 65795
nan nan 1.301062 131588
nan nan 1.300984 770
-0.50700003 0.14530286 0.98948896 4278452994
-0.50142854 0.14485715 0.98914796 4278454531
-0.49552003 0.14530286 0.9900229 4278782473
-0.49106288 0.14530286 0.99084598 4278454538
-0.48602286 0.14693713 0.99296606 4278388742
-0.47848764 0.14693713 0.99377805 4278520071
-0.47238097 0.14738287 0.99538326 4278913033
-0.4662286 0.14738287 0.9970035 4278586121
-0.45864764 0.14782858 0.99775565 4278521090
-0.45106667 0.14782858 0.99847913 4278586121
-0.44482288 0.14782858 1.0000728 4278782473
-0.43853334 0.14827429 1.0016663 4278586121
-0.43090668 0.14872001 1.0023253 4278586121
-0.4245486 0.14916572 1.0038924 4278651657
-0.41689906 0.14916572 1.004506 4278979591
-0.40924954 0.14916572 1.0050966 4278848266
-0.4016 0.14916572 1.0056649 4278848010
-0.39512765 0.14916572 1.0071572 4278651914
-0.38745525 0.14961144 1.0076854 4278651658
-0.37978289 0.14961144 1.0081944 4278782988
-0.37211052 0.14961144 1.0091231 4278848267
-0.36660951 0.14961144 1.0110215 4278782986
-0.35889143 0.15050286 1.0129366 4278651660
-0.35221332 0.15050286 1.0138803 4278979595
-0.34447238 0.15050286 1.015801 4278651658
-0.33772573 0.15139429 1.0177122 4278914060
-0.32899049 0.15094857 1.0176718 4278979852
-0.32219809 0.15094857 1.0195676 4278979852
-0.31536001 0.15139429 1.0214344 4278979851
-0.30847621 0.15184 1.0223373 4279111182
-0.30154666 0.15184 1.0241475 4279111182
-0.29457143 0.15273142 1.0259082 4279111694
-0.28671619 0.15317714 1.0276128 4279176975
-0.27886096 0.15317714 1.0284368 4279177736
-0.27100572 0.15317714 1.0292499 4279242512
-0.26391619 0.15362285 1.0310122 4279374098
-0.2560381 0.15362285 1.0319505 4279243024
-0.24912001 0.15421715 1.0341659 4279374610
-0.24190857 0.15421715 1.0361247 4279243282
-0.23397714 0.15466285 1.0371058 4279243282
-0.22669715 0.15510857 1.0391179 4279374098
-0.21874286 0.15510857 1.0401113 4279439891
-0.2113943 0.15510857 1.0421573 4279439891
-0.20341715 0.15555428 1.0431546 4279177747
-0.19544001 0.15555428 1.0441536 4279636755
-0.18800001 0.15555428 1.0451542 4279440147
-0.18068571 0.15600002 1.0486056 4279440147
-0.17363811 0.15704001 1.0517021 4279112723
-0.16556191 0.15748572 1.0526357 4279440147
-0.15748572 0.15748572 1.0535636 4279112722
-0.14983238 0.15793145 1.0553474 4279506197
-0.14173333 0.15793145 1.0561012 4279440405
-0.13413715 0.15793145 1.0568587 4279244308
-0.12636191 0.15852572 1.0600078 4279178517
-0.11820953 0.15897144 1.0607527 4279440404
-0.11036573 0.15897144 1.0614985 4279506196
-0.10219049 0.15941715 1.0632358 4279441171
-0.094015241 0.15941715 1.0639695 4279571481
-0.086160004 0.15941715 1.064703 4279178516
-0.077954292 0.15941715 1.0666857 4279178008
-0.069942862 0.16001144 1.0683033 4279112728
-0.061714288 0.16045715 1.0689888 4279112723
-0.053485718 0.16045715 1.069672 4279571222
-0.045424767 0.16105145 1.0714438 4279571225
-0.037268572 0.16149715 1.072881 4279637790
-0.028986666 0.16105145 1.072925 4279507235
-0.020647621 0.16105145 1.0721824 4280033311
-0.012457143 0.16105145 1.0738363 4280887602
-0.0041523809 0.16194287 1.0738831 4280953392
0.0041409526 0.16194287 1.0739305 4289639075
0.012914285 0.16788571 1.0894877 4283455832
0.021447619 0.16729143 1.0895406 4283981925
0.029840002 0.16625144 1.0860716 4282995290
0.037988573 0.16461715 1.0843054 4279179294
0.046723809 0.16565715 1.0826617 4279377185
0.055070482 0.16521144 1.0815158 4279772705
0.063314289 0.16461715 1.0815721 4279311150
0.071561903 0.16417143 1.0790403 4280165160
0.079980955 0.16417143 1.0790974 4280099374
0.087760001 0.16298287 1.0791553 4281154112
0.0961181 0.16298287 1.0760212 4281349940
0.10419048 0.16253716 1.0745627 4280228657
0.11211429 0.16194287 1.0727977 4279768606
0.12041905 0.16194287 1.0721991 4279703593
0.12801525 0.16105145 1.0706868 4279376670
0.13577144 0.16045715 1.0676938 4279507225
0.1436 0.16001144 1.0656964 4279441690
0.15180571 0.16045715 1.0661398 4279769118
0.16001144 0.15941715 1.0639815 4279638046
0.16712382 0.15897144 1.0612483 4279769375
0.17478476 0.15897144 1.0588446 4279835420
0.18222858 0.15852572 1.0563395 4279639835
0.19032763 0.15852572 1.0551703 4279902752
0.19786668 0.15748572 1.052025 4280034331
0.20477715 0.15659428 1.0478778 4280363302
0.21200001 0.15600002 1.045266 4280233003
0.21874286 0.15555428 1.0407369 4280560685
0.22669715 0.15510857 1.0379992 4280823335
0.23397714 0.15466285 1.0365536 4280757799
0.24121146 0.15466285 1.033712 4281019948
0.24816002 0.15362285 1.0291704 4281084718
0.25529525 0.15317714 1.0262452 4281150256
0.26238474 0.15317714 1.0245757 4281085487
0.26942858 0.15273142 1.0214247 4280954411
0.27723813 0.15273142 1.0196363 4281150766
0.28421333 0.15139429 1.0148921 4280626226
0.29200003 0.15139429 1.0115687 4279707948
0.29802668 0.15094857 1.0096606 4279706666
0.30486476 0.15050286 1.0049676 4279901736
0.31165713 0.15005714 1.0017554 4279443234
0.31840384 0.14961144 1.0005269 4279441696
0.32510477 0.14916572 0.99794304 4279310610
0.33176002 0.14872001 0.99532562 4278851601
0.33836952 0.14827429 0.991458 4279375375
0.34493336 0.14782858 0.99004924 4279570457
0.35145143 0.14738287 0.98742157 4278915351
0.35720003 0.14693713 0.98372984 4279374354
0.36472002 0.14664 0.98157418 4279046674
0.37110856 0.14619428 0.9791196 4279242768
0.37629718 0.14530286 0.97675335 4279176976
0.38257143 0.14485715 0.97438782 4278915598
0.38920003 0.14485715 0.97201258 4278849807
