# .PCD v0.7 - Point Cloud Data file format
VERSION 0.7
FIELDS x y z rgba
SIZE 4 4 4 4
TYPE F F F U
COUNT 1 1 1 1
WIDTH 1097
HEIGHT 1
VIEWPOINT 0 0 0 1 0 0 0
POINTS 1097
DATA ascii
0.41801143 0.062754288 0.85962409 4287535520
0.45770478 0.064114295 0.94053346 4287206816
0.46383429 0.067169525 0.93999624 4294901491
0.46841908 0.066952385 0.93556744 4294901502
0.47468573 0.066590473 0.93254328 4294901502
0.48015237 0.066590473 0.92883992 4294901502
0.48628575 0.066445716 0.92790985 4294901502
0.49322858 0.066228569 0.92250717 4294901502
0.49767619 0.066228569 0.9223358 4294901502
nan nan 1.8218043 16711422
nan nan 1.8218524 14409437
nan nan 1.821902 2848388
nan nan 1.8219535 16514813
nan nan 1.8220065 16317688
nan nan 1.8220613 16449020
nan nan 1.8221186 16448763
nan nan 1.822178 16317434
nan nan 1.8227396 396041
nan nan 1.8226861 264455
nan nan 1.8226308 132610
-0.65880007 0.092880003 1.1476109 4278979346
-0.65001905 0.090720005 1.1426687 4278848523
-0.64128381 0.090399995 1.1432693 4281549348
-0.60685712 0.086400002 1.0716341 4278651662
-0.59671623 0.086400002 1.0712608 4278979088
-0.59215617 0.086959995 1.0810922 4281350960
-0.58555055 0.087200001 1.0852911 4282667067
-0.57929909 0.087520011 1.0910909 4283717416
-0.57616001 0.087760001 1.101558 4284572995
-0.57039052 0.088399999 1.1122559 4284508496
-0.56349713 0.088640004 1.1123465 4285759611
-0.55716574 0.088640004 1.1233457 4288457622
-0.54872382 0.088640004 1.1235118 4288589726
-0.53671426 0.088399999 1.1117785 4286813589
-0.52619046 0.088080004 1.1062307 4285166473
-0.47606859 0.084419049 1.0926142 4278389512
-0.46694475 0.080560006 0.99769509 4278849550
-0.45897147 0.080799997 0.99737918 4280297767
-0.45017141 0.080560006 0.99461704 4279639842
-0.4437905 0.080560006 0.99434513 4280625705
-0.43411052 0.079839997 0.98942947 4281018160
-0.4251619 0.079839997 0.98699558 4280032561
-0.41881147 0.080320008 0.99126893 4280493091
-0.41060573 0.080560006 0.99105215 4281545274
-0.40399998 0.080320008 0.99312502 4279574045
-0.39704576 0.080320008 0.9906407 4279770656
-0.38589334 0.079839997 0.98825699 4279967790
-0.37865144 0.079839997 0.98808432 4281018422
-0.37100193 0.079839997 0.98814702 4280165669
-0.36199051 0.079839997 0.98404461 4280362544
-0.35440955 0.079599999 0.98210907 4280033838
-0.34701335 0.080080003 0.98622292 4279902241
-0.3373524 0.079360001 0.98028982 4280559419
-0.33155048 0.078960001 0.98229927 4279968297
-0.32219049 0.079360001 0.9804154 4280230690
-0.31459621 0.079120003 0.98047626 4279902498
-0.30894476 0.079120003 0.98247904 4281085234
-0.30134287 0.079839997 0.9845264 4279706153
-0.29362667 0.079839997 0.98458171 4280230956
-0.28514284 0.079599999 0.98463595 4282461490
-0.27670476 0.079599999 0.98270357 4280099368
-0.26912382 0.079120003 0.98275703 4280823095
-0.26277909 0.078960001 0.98280966 4280363320
-0.25472763 0.079839997 0.98698676 4283453508
-0.24712382 0.079360001 0.98312271 4282006347
-0.23880002 0.079360001 0.98327565 4280758841
-0.23191619 0.079599999 0.98342633 4281482555
-0.22363812 0.079120003 0.98357505 4285692033
-0.21605715 0.078960001 0.98176676 4281220670
-0.2084762 0.078960001 0.97999334 4281283382
-0.19927999 0.078720003 0.97887385 4281481539
-0.19176 0.078720003 0.97900647 4281217863
-0.18573335 0.078960001 0.9823218 4281021241
-0.17761524 0.079120003 0.98052883 4281217589
-0.17005715 0.079120003 0.98065829 4281415235
-0.16249906 0.078960001 0.98078597 4282534989
-0.15634666 0.079120003 0.98284733 4282470224
-0.14872001 0.079360001 0.98696971 4282994512
-0.14067048 0.079599999 0.98674113 4282994514
-0.13306667 0.079599999 0.98456383 4282929744
-0.12546286 0.079599999 0.98437703 4283061335
-0.11785905 0.079599999 0.9860872 4283325018
-0.11025524 0.079599999 0.98587948 4283652703
-0.10234286 0.079599999 0.98384279 4283982433
-0.094761908 0.079599999 0.98367316 4283787107
-0.08770667 0.079839997 0.98528397 4284049515
-0.080080003 0.080080003 0.9868902 4283786087
-0.072453335 0.080080003 0.98667789 4281220703
-0.065020956 0.080080003 0.9864701 4282603603
-0.057371434 0.080320008 0.98803318 4283851084
-0.049721908 0.080320008 0.98780864 4292601255
-0.042323809 0.080320008 0.98935771 4294901502
-0.03462857 0.080560006 0.98911768 4294901502
-0.026933331 0.080320008 0.98852104 4294901502
-0.019180954 0.080320008 0.98793727 4294901502
-0.011577142 0.080320008 0.98736578 4294901502
-0.0038590475 0.080320008 0.98680657 4294901502
0.0037904764 0.079839997 0.98625886 4294901502
0.011337143 0.079599999 0.98286796 4294901502
0.018895239 0.079599999 0.98113465 4294901502
0.026453335 0.079599999 0.98075879 4294639100
0.033908572 0.079599999 0.98039174 4294704893
0.03888762 0.074000001 0.94607002 4282213214
0.045561906 0.073840007 0.94100821 4285036153
0.052571427 0.073840007 0.94136101 4285100158
0.059451431 0.073600002 0.93946153 4284969850
0.066228569 0.073440008 0.93979555 4284576374
0.073200002 0.073440008 0.94236386 4284640119
0.080171429 0.073440008 0.94447565 4283324520
0.086613335 0.073440008 0.9427411 4279774798
0.093683809 0.074000001 0.94292665 4280560182
0.10141715 0.073840007 0.94310993 4281348149
0.10664 0.072238103 0.94329131 4281350198
0.11414858 0.073040001 0.93540466 4280361015
0.122 0.073200002 0.9355675 4280626742
0.12764572 0.073440008 0.93572873 4280298290
0.13813715 0.073840007 0.94171774 4284566914
0.14338286 0.073440008 0.9384048 4280823347
0.14906667 0.073040001 0.93259811 4280626482
0.15426667 0.07106667 0.93029845 4283191144
0.16121905 0.070095234 0.93888021 4279773237
0.16990286 0.072240002 0.91777927 4280623919
0.17505142 0.071680002 0.91789407 4281548609
0.18125714 0.071680002 0.91088247 4280890677
0.18851811 0.071840003 0.91472459 4280493870
0.1949943 0.071680002 0.914473 4280626738
0.20251048 0.071680002 0.9142186 4280954677
0.20881143 0.071680002 0.92064965 4280234076
0.21384001 0.071520008 0.90679276 4280757046
0.22013335 0.071280003 0.90369695 4281549121
0.22741716 0.071280003 0.90342146 4282792527
0.23420572 0.071280003 0.90314311 4280692025
0.24117716 0.071520008 0.90848774 4281679176
0.24948001 0.071280003 0.91235274 4282405202
0.25456002 0.070800006 0.90792209 4281811519
0.25999239 0.070800006 0.8918761 4282336326
0.26634285 0.070800006 0.89451391 4282404170
0.27321905 0.070400007 0.89711565 4282008902
0.28051808 0.070400007 0.90099454 4282141268
0.28721905 0.070560001 0.89050716 4280694602
0.29165715 0.070000008 0.879807 4284508246
0.29668573 0.070000008 0.87646234 4286282362
0.30430287 0.070400007 0.87904125 4284443757
0.3109543 0.070400007 0.88155216 4283652969
0.31760573 0.070000008 0.88111973 4284970623
0.32351431 0.070000008 0.87780225 4286150799
0.33000001 0.070000008 0.87019807 4282799190
0.33512765 0.069839999 0.86981046 4281482059
0.34184572 0.069679998 0.86941046 4282010439
0.3468 0.069360003 0.86305851 4281613642
0.3550362 0.069520004 0.86658573 4280626735
0.36123431 0.069360003 0.87221217 4282533186
0.3696 0.070000008 0.87170619 4283390812
0.37580571 0.069839999 0.86746651 4285692540
0.37992194 0.069360003 0.86148864 4286677640
0.38509715 0.068960004 0.85665411 4287401877
0.39077333 0.068960004 0.85919636 4287271572
0.39641905 0.068640009 0.85444748 4287075485
0.40178666 0.068640009 0.85247105 4287141537
0.4078857 0.068319999 0.85225201 4287338146
0.41480002 0.068640009 0.85030413 4287338654
0.41982666 0.068319999 0.84838849 4287469987
0.42618665 0.069700956 0.84650642 4287207326
0.46106669 0.072800003 0.91397941 4294703311
0.46697146 0.072480001 0.90901184 4294901502
0.47216004 0.072240002 0.9053902 4294901502
0.47988001 0.072240002 0.90443301 4294901502
0.48599622 0.072240002 0.90336818 4294901502
0.49118477 0.072480001 0.90320128 4294901502
nan nan 1.8217305 14608356
nan nan 1.8217819 2448228
nan nan 1.8218348 15859454
nan nan 1.8218899 16514556
nan nan 1.8219467 16711422
nan nan 1.822006 16449020
nan nan 1.822067 16514556
nan nan 1.8221308 16317434
nan nan 1.8227036 461834
nan nan 1.8226427 198410
nan nan 1.8225799 132610
-0.6564762 0.096857138 1.1394494 4279440147
-0.64599234 0.096257143 1.1297859 4279506705
-0.63743621 0.096257143 1.130219 4284109365
-0.60274285 0.093171433 1.0702462 4279902759
-0.5892058 0.092876196 1.0567802 4280756006
-0.58148575 0.092876196 1.0563061 4280428844
-0.58340955 0.094365716 1.0789957 4280624439
-0.57813334 0.095504768 1.0830706 4283521347
-0.57095236 0.095504768 1.0887257 4286546275
-0.56471241 0.095504768 1.0886183 4286614652
-0.55846095 0.096468575 1.1050633 4284905832
-0.54603809 0.095241904 1.0884185 4286352233
-0.53477341 0.094979055 1.0778176 4290296226
-0.52662861 0.094979055 1.0768647 4290759103
-0.51904762 0.095241904 1.0804279 4290297781
-0.47094667 0.087969527 0.99030697 4278387982
-0.46193144 0.087443814 0.9877094 4279046671
-0.4515962 0.086655237 0.98089224 4280692781
-0.44425336 0.086655237 0.98285007 4279638051
-0.43984765 0.087443814 0.98702198 4279573537
-0.43021908 0.087180957 0.98250496 4280099622
-0.42008954 0.086655237 0.98028964 4281216818
-0.41316193 0.086918101 0.98218524 4280034081
-0.40435812 0.086655237 0.98002094 4280099621
-0.39849335 0.086655237 0.981888 4280428328
-0.39395052 0.087180957 0.98585868 4279769889
-0.38241333 0.086918101 0.9796527 4280032551
-0.37412003 0.086479999 0.97764754 4281543747
-0.36660001 0.086479999 0.97959381 4280164642
-0.35908002 0.086655237 0.97964817 4280428074
-0.35038859 0.086217143 0.97658575 4280493102
-0.34216002 0.086217143 0.97664076 4280427311
-0.33464 0.086217143 0.97669494 4279902498
-0.32612571 0.086217143 0.97494519 4281017644
-0.32024762 0.086217143 0.97680014 4280558120
-0.31205145 0.086217143 0.97505099 4280099364
-0.30456001 0.08569143 0.97510231 4280887341
-0.29710287 0.08569143 0.97339833 4280625454
-0.28997144 0.08569143 0.98009354 4281084982
-0.28428575 0.085028574 0.98013866 4281019960
-0.27398098 0.085028574 0.98018312 4281941561
-0.26696002 0.086217143 0.97713971 4281942342
-0.25865144 0.086217143 0.97539312 4280889399
-0.25038859 0.085428573 0.97377563 4282271305
-0.24365716 0.08569143 0.97566617 4282535243
-0.23688 0.08569143 0.97580028 4281287496
-0.22913145 0.08569143 0.97416341 4281020727
-0.22049145 0.085428573 0.97255492 4280756794
-0.21366857 0.085428573 0.97267473 4280626748
-0.20617144 0.085954294 0.97632027 4281413944
-0.19867429 0.086217143 0.97644663 4282205257
-0.19059429 0.085954294 0.97477925 4282797900
-0.18385714 0.085954294 0.97669405 4282535502
-0.17672001 0.085954294 0.97681582 4282732369
-0.169 0.085954294 0.9769361 4282863440
-0.16118857 0.085954294 0.97524637 4282797393
-0.15416001 0.085954294 0.97902304 4282403664
-0.14693713 0.086479999 0.97914279 4282468687
-0.13940191 0.086217143 0.97904545 4282731347
-0.13160001 0.086479999 0.9789505 4283126103
-0.12470857 0.086479999 0.98005486 4283455832
-0.11679619 0.086479999 0.97994471 4283522141
-0.10926095 0.086655237 0.97983694 4282141796
-0.10203429 0.086655237 0.97973174 4282008409
-0.094761908 0.086918101 0.98134691 4281815626
-0.087443814 0.087180957 0.98473775 4287203208
-0.080080003 0.087443814 0.98456126 4294770379
-0.072453335 0.087443814 0.98438823 4294901502
-0.064826667 0.087443814 0.98597407 4294901502
-0.057371434 0.08770667 0.98578334 4294901502
-0.049721908 0.087180957 0.98559606 4294901502
-0.042072382 0.086918101 0.98372865 4294901502
-0.034217145 0.086655237 0.98039675 4294901502
-0.026613334 0.086655237 0.98005784 4294901502
-0.018952383 0.086479999 0.97972733 4294901502
-0.011405714 0.086655237 0.97940493 4294901502
-0.0037790476 0.086655237 0.97776508 4294901502
0.0037485715 0.086479999 0.97750413 4294901502
0.01121143 0.086479999 0.97724926 4294901502
0.018628573 0.085954294 0.9751119 4294901502
0.026080001 0.085954294 0.97390211 4294508027
0.033360001 0.08569143 0.9737767 4294639357
0.03876191 0.083641909 0.96683544 4281947239
0.044967622 0.079996191 0.92748505 4285166969
0.051600002 0.079558097 0.92536724 4285100413
0.058674287 0.079558097 0.91946989 4284969597
0.065360002 0.079382859 0.91975415 4284969591
0.072240002 0.079120003 0.92003208 4285496967
0.078681909 0.078944758 0.91375387 4281157460
0.08533334 0.078506663 0.90727031 4285037188
0.091954283 0.078331426 0.90466934 4284247931
0.099207625 0.078331426 0.90745699 4281482558
0.10604953 0.078681909 0.9075489 4281284415
0.11326858 0.078944758 0.91165721 4280429107
0.11880001 0.078068569 0.90500873 4280363058
0.12548572 0.078068569 0.89813864 4280362546
0.13282286 0.078331426 0.90790832 4280886075
0.13994667 0.078331426 0.90799594 4280688937
0.14700954 0.077828571 0.92137462 4280824390
0.15409334 0.07958667 0.89553273 4280823349
0.15953144 0.07958667 0.89845926 4280691501
0.16688001 0.078331426 0.90277636 4282073432
0.17272002 0.077893332 0.90284789 4280757301
0.17868572 0.077718101 0.89544392 4280166447
0.18626668 0.077893332 0.89806587 4281678142
0.19347429 0.078068569 0.90206653 4281217847
0.19936381 0.077542864 0.8946619 4280758328
0.20480001 0.076200001 0.89439636 4281547845
0.21168001 0.076200001 0.88830388 4281610815
0.2184 0.077280007 0.88804168 4281348153
0.22420001 0.076929525 0.8803786 4281809220
0.23078857 0.076929525 0.88012975 4282008391
0.23876001 0.077280007 0.89303118 4281811778
0.24667047 0.077718101 0.89275026 4281217859
0.252 0.077280007 0.88669574 4280954422
0.25813335 0.077280007 0.88205075 4281745482
0.26376 0.076666676 0.8788569 4282205261
0.26938286 0.07649143 0.8712337 4280427815
0.27500004 0.076316193 0.86886007 4282993490
0.2816667 0.076316193 0.86857742 4281811527
0.28833336 0.076140948 0.8662374 4280822581
0.29395428 0.075965717 0.86594993 4284047969
0.29951999 0.075702854 0.86165887 4283392604
0.30596572 0.075352386 0.86137968 4283915097
0.31212002 0.075352386 0.86109245 4288392884
0.31872573 0.075527616 0.86079729 4287733405
0.32585144 0.075702854 0.86049354 4287602076
0.33253333 0.075527616 0.86018074 4287338139
0.33671999 0.075177148 0.85335487 4286746514
0.3423619 0.07500191 0.85128528 4286613903
0.34973717 0.07500191 0.8510198 4287008406
0.35624 0.075177148 0.85250533 4287338647
0.36038095 0.074563809 0.8470487 4287404187
0.36693332 0.074563809 0.8469339 4287535776
0.37413335 0.074563809 0.84681261 4287403682
0.38002861 0.074563809 0.84668416 4287338909
0.38578668 0.074563809 0.84409481 4287404444
0.39111429 0.074213333 0.84396613 4287469473
0.3962 0.074038103 0.84067297 4287601313
0.40142861 0.073862866 0.83749855 4287469475
0.40720952 0.073862866 0.83739489 4287470245
0.41427431 0.073862866 0.83877361 4287469982
0.42008573 0.07368762 0.83716518 4287601571
0.45933336 0.076099053 0.90460056 4287536034
0.46250668 0.078506663 0.89443946 4291681441
0.46658286 0.078331426 0.88467658 4294901502
0.47274667 0.078068569 0.8863768 4294901502
0.47957334 0.078068569 0.88299656 4292993505
0.48361143 0.076628581 0.88286024 4281420686
nan nan 1.8216579 3893607
nan nan 1.8217125 15924216
nan nan 1.821769 16711422
nan nan 1.8218273 16514556
nan nan 1.821888 16448763
nan nan 1.8219509 16514556
nan nan 1.8220161 16449020
nan nan 1.8220836 16251895
nan nan 1.822665 329998
nan nan 1.8225962 132610
-0.62388575 0.10297143 1.0474443 4283189786
-0.61608005 0.10066667 1.0435441 4280100897
-0.60630095 0.10095239 1.0397674 4279113240
-0.59399998 0.099428572 1.0294003 4279968285
-0.58600003 0.099142857 1.0288305 4280362789
-0.57867432 0.099142857 1.0311073 4280297253
-0.57417905 0.10000001 1.0374885 4280559136
-0.57109904 0.10052001 1.0512943 4280495413
-0.57234859 0.10257144 1.0674549 4284640129
-0.56365716 0.10257144 1.0671432 4285561991
-0.55593717 0.10257144 1.0668466 4288654245
-0.54569721 0.10190476 1.0624772 4290035635
-0.53601903 0.10190476 1.056811 4290364599
-0.52786666 0.10190476 1.0618863 4290563264
-0.5183391 0.10161905 1.0555611 4290431935
-0.51080573 0.10190476 1.0546455 4286680715
-0.46763429 0.095047623 0.98765051 4278651659
-0.45726478 0.093714289 0.98075265 4278981139
-0.44658861 0.093428575 0.97317159 4283452986
-0.4391143 0.09314286 0.97309089 4279968551
-0.43164 0.09314286 0.97301346 4280164647
-0.42416573 0.093428575 0.97482574 4280230435
-0.41609144 0.093428575 0.9747324 4280493096
-0.40796572 0.09314286 0.97279882 4279703840
-0.39987433 0.09314286 0.9727326 4279836194
-0.39359999 0.093428575 0.97447312 4280687903
-0.38628572 0.093428575 0.97439295 4280362798
-0.37932003 0.093714289 0.97431529 4280098852
-0.37070858 0.092666671 0.97249025 4280360737
-0.3606343 0.092380948 0.96772009 4280887344
-0.35289523 0.092380948 0.96922851 4279835939
-0.34649143 0.092666671 0.96928054 4280229416
-0.33730668 0.092666671 0.9678697 4280821550
-0.33154288 0.092666671 0.96938163 4280887594
-0.32413715 0.092857145 0.9710837 4281347636
-0.3157886 0.091619052 0.96801162 4282007608
-0.30688003 0.091560006 0.96952677 4282207300
-0.2986362 0.091047622 0.96589047 4282338123
-0.29102096 0.092095241 0.96593159 4282139972
-0.28453335 0.091809526 0.96152008 4281481282
-0.27529523 0.093160003 0.96006262 4282534726
-0.26992002 0.091619052 0.96382248 4282139973
-0.26257524 0.091809526 0.96162003 4282207308
-0.25602478 0.092095241 0.96389341 4281020730
-0.24834667 0.092380948 0.968463 4281085502
-0.24093334 0.092380948 0.96631998 4281152065
-0.23352002 0.092380948 0.96641445 4281941062
-0.22610669 0.092380948 0.96877658 4282666575
-0.21869333 0.092380948 0.9688791 4282667865
-0.21171428 0.092380948 0.96898043 4282732884
-0.20554286 0.092666671 0.97060853 4282797909
-0.19806859 0.092857145 0.97239876 4282666579
-0.19001144 0.092857145 0.9708187 4282600532
-0.18200001 0.092666671 0.97092217 4282666323
-0.17421333 0.092666671 0.96947193 4282797907
-0.16680001 0.092666671 0.96956724 4282994518
-0.16020572 0.092666671 0.97122639 4283060310
-0.15369144 0.092857145 0.97479272 4283126100
-0.14619428 0.093428575 0.97490066 4282600784
-0.13827428 0.093428575 0.97486788 4282995286
-0.1312 0.093428575 0.97657347 4282929750
-0.12408001 0.093714289 0.97826511 4290692527
-0.11656 0.093714289 0.97818065 4294901502
-0.10904 0.093714289 0.97809798 4294901502
-0.10172572 0.094190478 0.97915483 4294901502
-0.094476193 0.094000004 0.97905838 4294901502
-0.087180957 0.094000004 0.97896397 4294901502
-0.079599999 0.093714289 0.97887105 4294901502
-0.071801908 0.094000004 0.97877991 4294901502
-0.064243808 0.094000004 0.97869068 4294901502
-0.056685716 0.093714289 0.97756082 4294901502
-0.048979048 0.093428575 0.97598511 4294901502
-0.041360002 0.09314286 0.97449702 4294901502
-0.033840001 0.09314286 0.97447217 4294901502
-0.026240001 0.092857145 0.97431266 4294901502
-0.018685715 0.092857145 0.97287291 4294901502
-0.01121143 0.092666671 0.97276688 4294901502
-0.0037257145 0.092380948 0.97150689 4294901502
0.0036952381 0.092666671 0.97144967 4294901502
0.011051429 0.092380948 0.97002804 4294901502
0.018361906 0.092095241 0.96998942 4294901502
0.025653336 0.092095241 0.96995181 4294507515
0.03298286 0.091809526 0.96592981 4294639357
0.03746286 0.086845718 0.90097207 4286022815
0.044274289 0.085142866 0.90381521 4285958540
0.051085718 0.08533334 0.90403599 4284969341
0.057897147 0.08533334 0.90425193 4284968827
0.064491428 0.08533334 0.90446377 4284903291
0.071280003 0.08533334 0.90467119 4285365124
0.078068569 0.08533334 0.90207124 4280954943
0.084857151 0.085142866 0.89943612 4282137160
0.091440007 0.084666677 0.89539284 4280231219
0.097771429 0.084476195 0.8926717 4280822320
0.10475048 0.084476195 0.89271188 4281284929
0.11176001 0.084666677 0.89553368 4280494659
0.11800001 0.084000006 0.8899799 4280626487
0.12432001 0.084000006 0.88717192 4280889151
0.13074286 0.084000006 0.88719743 4281151803
0.13744763 0.084000006 0.88722265 4281216823
0.14160001 0.08480572 0.87258953 4280035363
0.15132 0.08480572 0.87043989 4282206540
0.15748 0.083809532 0.8829425 4280890158
0.16464001 0.084000006 0.88732147 4281086265
0.17064191 0.083809532 0.8829717 4280888883
0.17640001 0.083333343 0.87979501 4282008637
0.1829143 0.083142862 0.87956262 4281680193
0.19008002 0.083142862 0.88225138 4281876290
0.19722858 0.083142862 0.87909251 4282072899
0.20193906 0.082952388 0.86728209 4282204741
0.20952 0.082952388 0.86708057 4282205510
0.21617144 0.082952388 0.8710801 4282204737
0.22166668 0.082952388 0.86875999 4281941828
0.22833334 0.082952388 0.86854845 4282008397
0.23369144 0.082095243 0.86217237 4281548359
0.23968001 0.081714287 0.85897213 4281743933
0.24864002 0.082320005 0.87998539 4282072654
0.25478098 0.081904761 0.8697623 4283652451
0.25987238 0.082095243 0.85842466 4284968560
0.26537144 0.081904761 0.85824031 4286020737
0.27192384 0.081904761 0.85802835 4286349703
0.27782857 0.081714287 0.85398519 4286483092
0.28304002 0.081047617 0.85191661 4286878361
0.29015046 0.081333332 0.85172606 4287338144
0.29605335 0.081333332 0.84970731 4287602344
0.30149713 0.081047617 0.84773177 4288457391
0.30725718 0.080857143 0.84493172 4289378239
0.31394666 0.080666669 0.8473736 4289840319
0.31957337 0.080666669 0.84461099 4289181622
0.32589334 0.080285713 0.84111321 4287273894
0.33156192 0.080285713 0.84097636 4286944157
0.33719811 0.080285713 0.83923566 4286942875
0.34362286 0.080095239 0.8391096 4287272605
0.35081714 0.080095239 0.84212583 4287535521
0.3565467 0.080095239 0.83884728 4287601830
0.36214286 0.079904765 0.8387804 4287667876
0.36827999 0.079904765 0.83720344 4287733159
0.37465715 0.080095239 0.83713788 4287601316
0.38125333 0.080095239 0.8370682 4287602080
0.38741145 0.080095239 0.83553624 4287733154
0.39190671 0.079523809 0.8340407 4287732900
0.39729714 0.079523809 0.83258277 4287666855
0.40494859 0.079714291 0.83391529 4287601829
0.41008762 0.079523809 0.83247411 4287536031
0.41528952 0.079142861 0.82975382 4287601057
0.42104 0.079142861 0.82971919 4287470242
0.42634287 0.078952387 0.82841027 4287470242
0.46188575 0.082786672 0.87189019 4288785812
0.46704003 0.084000006 0.87127173 4288063404
0.47306666 0.083619051 0.86729586 4285568157
nan nan 1.8215303 7703187
nan nan 1.8215863 16514813
nan nan 1.8216441 16711422
nan nan 1.8217039 16711422
nan nan 1.8217658 16711422
nan nan 1.8218299 16646142
nan nan 1.8218968 16514554
nan nan 1.8219658 16580349
nan nan 1.8220377 16580349
nan nan 1.8226235 198660
nan nan 1.822546 196866
-0.62212002 0.10872 1.0466514 4287600278
-0.61433148 0.10800001 1.0397335 4283193163
-0.60400009 0.10769143 1.0351144 4278784525
-0.59089148 0.10676572 1.0261648 4279046929
-0.58100951 0.10635429 1.0229979 4279375637
-0.5750286 0.10676572 1.025079 4279310357
-0.56873143 0.10676572 1.0245881 4279967522
-0.55218285 0.10512 1.0135424 4281421732
-0.54435045 0.10542858 1.0109302 4281748639
-0.5404343 0.10667429 1.0151018 4287274924
-0.5538857 0.10769524 1.0616509 4289641143
-0.52744001 0.10707428 1.0408401 4289643191
-0.52600002 0.10769143 1.0372869 4290496959
-0.51944005 0.10841143 1.033874 4290958021
-0.50993526 0.10800001 1.0330137 4290563013
-0.50619054 0.10700953 1.0383346 4285496696
-0.46153334 0.10161905 0.98065305 4278849043
-0.44894859 0.0998419 0.96764755 4279441957
-0.44158095 0.099771433 0.9676156 4282073942
-0.43419048 0.099771433 0.96758485 4280754470
-0.42714286 0.10008001 0.9690637 4280494124
-0.4197143 0.10008001 0.96902889 4280888882
-0.41329333 0.10008001 0.96899545 4279507488
-0.40402669 0.099771433 0.96747392 4280756775
-0.39478096 0.099154294 0.96522182 4279835938
-0.38920003 0.099771433 0.96520573 4279901979
-0.38127428 0.099462859 0.96297741 4280295971
-0.37252003 0.099154294 0.96076226 4280034342
-0.36653906 0.099154294 0.96516079 4280757036
-0.35731432 0.098948583 0.96079564 4281480499
-0.34920001 0.098640002 0.95935553 4281876021
-0.34051809 0.098331429 0.95717001 4282337342
-0.33323428 0.098331429 0.9549737 4282730824
-0.32595047 0.098331429 0.95722163 4282928460
-0.31784001 0.098331429 0.95724672 4282929492
-0.31053334 0.098331429 0.95727152 4283324248
-0.3022781 0.098125719 0.95505893 4283323988
-0.29526284 0.097817145 0.95358366 4282733144
-0.28861335 0.098331429 0.95734322 4282535251
-0.28042665 0.098331429 0.95511937 4281152831
-0.27438858 0.098125719 0.95513898 4281547329
-0.26808381 0.098640002 0.95966083 4281152315
-0.26073906 0.098948583 0.95968592 4282401350
-0.25339431 0.098640002 0.95971054 4282667084
-0.24660002 0.098948583 0.9612745 4282863698
-0.23944762 0.099154294 0.96133745 4282668376
-0.23136 0.098640002 0.96139956 4282930776
-0.22355048 0.098640002 0.95992982 4283323997
-0.21667048 0.098948583 0.95998353 4283389537
-0.20997715 0.098948583 0.96158278 4283455327
-0.2032381 0.098948583 0.96164268 4283521626
-0.19645335 0.099154294 0.96403873 4283520601
-0.18904001 0.099462859 0.96645004 4283258201
-0.18162668 0.099462859 0.96652967 4282864982
-0.17367619 0.099771433 0.96660852 4282600785
-0.16680001 0.099771433 0.96905404 4282732114
-0.15938666 0.10008001 0.96914178 4285822071
-0.15322287 0.10008001 0.97250748 4294901461
-0.14574859 0.10059429 0.97260565 4294901502
-0.13827428 0.10059429 0.97259754 4294901502
-0.13080001 0.10059429 0.97427249 4294901500
-0.12332572 0.10028572 0.97258264 4294901502
-0.11585143 0.099771433 0.97257543 4294901502
-0.10837714 0.099462859 0.97256804 4294901502
-0.10090286 0.099462859 0.97414649 4294901502
-0.093428575 0.10028572 0.97255397 4294901502
-0.08569143 0.10028572 0.97104663 4294901502
-0.07824 0.099771433 0.96951526 4294901502
-0.07078857 0.099771433 0.96953559 4294901502
-0.063142858 0.099462859 0.96724439 4294901502
-0.055600002 0.099154294 0.96496093 4294901502
-0.048038095 0.098948583 0.96268481 4294901502
-0.040647618 0.098948583 0.96272427 4294901502
-0.033257145 0.098948583 0.96505862 4294901502
-0.025866667 0.098640002 0.9612636 4294901502
-0.018361906 0.098331429 0.95904124 4294901502
-0.011017144 0.098640002 0.96133035 4294901502
-0.0036723812 0.098331429 0.9613626 4294901502
0.0036228572 0.098331429 0.95920783 4294901502
0.010834287 0.098125719 0.95709103 4294901502
0.018019047 0.097508579 0.95572942 4294901502
0.025146667 0.097302862 0.95153785 4294901502
0.032228574 0.096994288 0.95166397 4294573307
0.037337143 0.093133338 0.89879602 4292402658
0.043680001 0.091234289 0.88972932 4286221975
0.0504 0.091028571 0.8871845 4284968574
0.056990478 0.090720005 0.88730419 4284969084
0.06355048 0.090308577 0.87786388 4284902523
0.070000008 0.090308577 0.87793779 4284772732
0.076666676 0.090000004 0.87792844 4282863198
0.083142862 0.089794286 0.87791944 4281017146
0.089588575 0.089794286 0.87791038 4279704884
0.096445717 0.090000004 0.87510276 4280099627
0.10333334 0.090000004 0.8750878 4280559664
0.11000001 0.090308577 0.8806802 4280888630
0.11706667 0.090514295 0.88067728 4283053627
0.12375619 0.090308577 0.87786609 4281676611
0.12940572 0.089588575 0.87076133 4279772226
0.13494857 0.089177147 0.86445785 4288447643
0.14235048 0.089382865 0.86651003 4280823347
0.14897142 0.089588575 0.86858058 4279904296
0.15500002 0.089382865 0.86645907 4280953658
0.16166668 0.089382865 0.86853266 4280692533
0.16833335 0.089177147 0.86640894 4280626997
0.1742 0.088868573 0.86414272 4280560949
0.17977144 0.088251427 0.85486364 4281548089
0.1858743 0.088251427 0.85471499 4281745477
0.19239621 0.088251427 0.8545655 4283520602
0.1989181 0.088251427 0.85441548 4284506982
0.20496 0.087839998 0.85040969 4285034870
0.21072382 0.087325715 0.84838742 4285494657
0.21786667 0.087325715 0.85014528 4286087301
0.22500572 0.087531433 0.85380822 4286810766
0.23150858 0.087839998 0.84987849 4287338388
0.23665905 0.087839998 0.84974444 4287666839
0.244 0.087839998 0.84960955 4287930786
0.24962667 0.087531433 0.84764737 4288128162
0.25550857 0.087531433 0.84483618 4287141277
0.26197717 0.087325715 0.84472746 4286943389
0.26840001 0.087120004 0.8428672 4285957513
0.27361906 0.086708575 0.84104985 4286418327
0.2797657 0.086708575 0.84095204 4287075487
0.28513905 0.086502858 0.8391903 4287535525
0.29154664 0.086502858 0.83747464 4287733928
0.29795429 0.086502858 0.83739877 4288391342
0.3036381 0.086297147 0.83574349 4288852147
0.30990288 0.086091429 0.83567953 4289510329
0.31566855 0.085885718 0.83408779 4288852401
0.32127622 0.085885718 0.83403713 4287864750
0.32760954 0.085885718 0.8325122 4287535269
0.33320001 0.08568 0.83104038 4287535266
0.33949527 0.08568 0.83102185 4287535779
0.34581146 0.085474283 0.83100295 4287930528
0.35074285 0.085268572 0.82962245 4287733925
0.35686478 0.085268572 0.82827443 4287734182
0.36230478 0.085062861 0.82695943 4287799460
0.36949715 0.085268572 0.82826257 4287799207
0.37513715 0.085062861 0.82696366 4287668133
0.38028574 0.084651433 0.8257007 4287798695
0.38621715 0.084651433 0.82571298 4287733415
0.39285716 0.084651433 0.82572615 4287733156
0.39853525 0.084857151 0.8257401 4287667620
0.40502667 0.084857151 0.82575494 4287602082
0.41055238 0.084651433 0.82457852 4287469733
0.4164286 0.084445722 0.82460916 4287404705
0.42168954 0.084240004 0.82358676 4287404962
0.42744005 0.084240004 0.82309365 4287535518
0.4616667 0.08696381 0.85746968 4285696149
0.4666667 0.089177147 0.8554287 4294639356
nan nan 1.8214569 16646142
nan nan 1.8215157 16711422
nan nan 1.8215767 16711422
nan nan 1.8216397 16711422
nan nan 1.821705 16711422
nan nan 1.8217728 16711422
nan nan 1.8218431 16514556
nan nan 1.8219163 16514556
nan nan 1.8219919 16448763
nan nan 1.8225789 459529
nan nan 1.822492 4274217
-0.61291432 0.1146743 1.025049 4279184159
-0.61000007 0.11500572 1.0323489 4280822828
-0.60278857 0.11566857 1.0316802 4283785566
-0.59089148 0.1146743 1.0256935 4282274132
-0.57903999 0.11390095 1.0192916 4279706706
-0.56950474 0.1132381 1.0164293 4282077819
-0.55541337 0.11224381 1.0056052 4280501664
-0.54605526 0.11191238 1.0024192 4280435883
-0.53922671 0.11191238 1.0020963 4281486765
-0.53338671 0.11224381 1.00459 4288984270
-0.52793908 0.11257525 1.0100696 4294573816
-0.52281147 0.1132381 1.0119054 4294770427
-0.51603436 0.11283048 1.01608 4289379525
-0.50469905 0.11283048 1.0189203 4291154899
-0.5002591 0.11356952 1.0182205 4290364867
-0.49632004 0.11423238 1.0175431 4289442999
-0.45126671 0.10683048 0.96511871 4278914572
-0.44435811 0.10627811 0.95894063 4280626719
-0.43657336 0.10594667 0.95894247 4280297774
-0.42926666 0.10594667 0.95666021 4279110683
-0.42196 0.10594667 0.95894605 4280692520
-0.41497907 0.10594667 0.95894778 4280822067
-0.40607238 0.10561524 0.96045423 4279902249
-0.39945909 0.10594667 0.95895088 4280230696
-0.39090669 0.10506286 0.95447069 4280100394
-0.38281146 0.10506286 0.95299834 4282072652
-0.37629336 0.10506286 0.95450342 4281743154
-0.3689867 0.10561524 0.95673823 4279835429
-0.36161143 0.1053943 0.95674658 4282140992
-0.35322857 0.10451048 0.95455146 4283323724
-0.34486857 0.10451048 0.95308805 4283652699
-0.33692572 0.10473144 0.95087689 4284573527
-0.32968 0.10473144 0.94865638 4283589215
-0.32141718 0.10473144 0.94866282 4283325018
-0.31518856 0.10473144 0.94866914 4281546571
-0.30794287 0.10473144 0.95091718 4281547844
-0.30069718 0.10473144 0.95092672 4281153845
-0.29345146 0.10506286 0.95093626 4281941835
-0.28771049 0.1053943 0.95319569 4282666574
-0.28042665 0.1053943 0.95470905 4282863700
-0.27314287 0.1053943 0.95322055 4282863439
-0.26628003 0.1053943 0.95323265 4282732372
-0.25985146 0.1053943 0.95475143 4283126615
-0.25129145 0.1053943 0.95476526 4283257430
-0.24400762 0.1053943 0.95326579 4283454811
-0.23746668 0.1053943 0.95480078 4283718497
-0.23016001 0.10561524 0.95481849 4283719006
-0.22285335 0.10561524 0.95714623 4283981926
-0.21622096 0.10594667 0.95949495 4283850339
-0.20889144 0.10594667 0.95720488 4283389533
-0.20156191 0.10594667 0.95723379 4283391068
-0.1946362 0.10627811 0.95961744 4283126603
-0.18729143 0.10649905 0.96123362 4289113002
-0.17994668 0.10649905 0.96128136 4294901502
-0.17313905 0.10649905 0.96132851 4294901502
-0.16628572 0.10649905 0.9637711 4294901502
-0.15938666 0.10683048 0.9662326 4294901502
-0.15197334 0.10649905 0.96388638 4294901502
-0.14385524 0.10594667 0.96151406 4294901502
-0.1367238 0.10594667 0.95992416 4294901502
-0.12901714 0.10561524 0.96156973 4294901500
-0.12118858 0.10561524 0.95756656 4294901502
-0.11360763 0.10561524 0.95760179 4294901502
-0.10594667 0.1053943 0.95522439 4294901502
-0.098640002 0.1053943 0.9552635 4294901502
-0.092382863 0.1053943 0.96170145 4294901502
-0.085253336 0.10597524 0.96172655 4294901502
-0.077360004 0.10594667 0.96175122 4294901502
-0.069775239 0.10561524 0.96018678 4294901502
-0.062430479 0.1053943 0.96021396 4294901502
-0.054971434 0.10506286 0.95548612 4294901502
-0.047344763 0.10506286 0.95393771 4294901502
-0.040060956 0.10473144 0.9539755 4294901502
-0.032708574 0.10451048 0.95164436 4294901502
-0.025440002 0.10451048 0.95173639 4294901502
-0.018114286 0.10451048 0.94950145 4294901502
-0.010902858 0.10451048 0.94961154 4294901502
-0.0036228572 0.10417905 0.94971937 4294901502
0.0035733334 0.10362667 0.94605362 4294901502
0.010685715 0.10329524 0.94245136 4294901502
0.017771428 0.10329524 0.94262064 4294901502
0.024879999 0.10329524 0.9427864 4294901502
0.031988572 0.10307429 0.94076365 4294573307
0.038946666 0.10274286 0.93733078 4294639357
0.043680001 0.097659044 0.88505638 4283660651
0.04965714 0.096224762 0.86720979 4285494922
0.056148574 0.096003808 0.86516982 4285429631
0.062754288 0.096003808 0.8631438 4285101439
0.068960004 0.095451429 0.86315888 4285298306
0.075702854 0.095451429 0.86311746 4286547848
0.082952388 0.096224762 0.86511856 4279506472
0.088662863 0.095782861 0.86303562 4279440674
0.095009528 0.095782861 0.86299521 4279704614
0.10132572 0.095451429 0.86295515 4279837750
0.10924571 0.095451429 0.86495823 4280493098
0.11473715 0.095009528 0.85784334 4280887856
0.12093715 0.094567627 0.85190767 4280757810
0.12745334 0.094567627 0.85382146 4281613637
0.13369906 0.095009528 0.85574979 4283191899
0.13989334 0.094567627 0.85375178 4284046949
0.14646858 0.094567627 0.85177493 4284968050
0.15290667 0.094567627 0.8498193 4285427320
0.15852572 0.094015241 0.84788567 4285625984
0.16494858 0.093794286 0.84503949 4286219135
0.17120001 0.093794286 0.84494478 4286877072
0.17788573 0.094015241 0.84763646 4287271311
0.18424381 0.093794286 0.84475434 4287536025
0.19037335 0.093794286 0.84465867 4286813330
0.19682668 0.093573339 0.84276074 4286680466
0.20280001 0.093573339 0.84090376 4286744969
0.20874286 0.093352385 0.84082973 4285430908
0.21508001 0.093352385 0.84075534 4285102447
0.22154857 0.093352385 0.84068072 4284838254
0.22748001 0.093131438 0.83890045 4285035373
0.23435999 0.092910476 0.83716357 4285363572
0.23971429 0.092689529 0.83711255 4285495414
0.24669334 0.092910476 0.83706146 4285429624
0.2528857 0.092689529 0.83864713 4285495418
0.25862667 0.09224762 0.83858317 4285364601
0.26458669 0.09224762 0.83218694 4284904820
0.27038097 0.09224762 0.83216834 4286746513
0.27608004 0.092026673 0.83214974 4287273375
0.28242669 0.092026673 0.83063751 4287798946
0.28856573 0.092026673 0.83063173 4287865513
0.29456952 0.091805719 0.82918042 4288325293
0.29972571 0.09136381 0.82777727 4288786097
0.3055962 0.09136381 0.82642335 4289246645
0.31189713 0.09136381 0.82646364 4288523696
0.31742859 0.090921909 0.82386559 4288127659
0.32292953 0.090921909 0.82394081 4287798694
0.32916003 0.090700962 0.82401782 4287798436
0.33552572 0.090921909 0.82409686 4287864996
0.34100002 0.090700962 0.82362783 4287799971
0.34703049 0.090480007 0.82371467 4288061866
0.3523905 0.090259053 0.8231836 4287996327
0.35828573 0.090259053 0.82320732 4287930535
0.36414859 0.090259053 0.82323253 4287996841
0.37010857 0.090259053 0.82270479 4287930792
0.37596002 0.090259053 0.82273507 4287996075
0.38094857 0.089596197 0.82164347 4287930540
0.38654289 0.089375235 0.82168227 4287799209
0.39391428 0.089375235 0.82172346 4287732899
0.39854857 0.089596197 0.82120091 4287601833
0.40460953 0.089596197 0.82125092 4287535782
0.40989333 0.089154288 0.82073539 4287601828
0.41554096 0.089154288 0.82079637 4287273889
0.42224765 0.089154288 0.82142484 4287339423
0.42789909 0.089154288 0.82036608 4287273375
0.46240002 0.092480004 0.84615976 4286945930
nan nan 1.8213848 16711420
nan nan 1.8214465 16711422
nan nan 1.8215104 16711422
nan nan 1.8215766 16711422
nan nan 1.8216453 16711422
nan nan 1.8217164 16448763
nan nan 1.8217905 16711422
nan nan 1.8218673 16580349
nan nan 1.8219471 16383227
nan nan 1.8225305 591887
nan nan 1.8224338 920852
-0.60505146 0.12104763 1.014359 4280494162
-0.59742862 0.11904 1.0137472 4281748854
-0.57408762 0.11785905 0.98791885 4282207618
-0.56838477 0.11821334 0.98759687 4283390606
-0.56246668 0.11821334 0.99241674 4284769171
-0.55624765 0.11856763 0.99471611 4285166746
-0.54857528 0.11856763 0.99439853 4283062430
-0.54059047 0.11821334 0.9941023 4282799525
-0.53481907 0.11927619 0.99644864 4286615995
-0.52868956 0.11927619 0.99884319 4290890978
-0.51395047 0.11770095 0.99332297 4291022808
-0.50602859 0.11715048 0.98337919 4290364117
-0.49883428 0.11750477 0.98555058 4285894068
-0.49382666 0.11785905 0.98775834 4284180368
-0.49103242 0.11909524 0.99739534 4288984486
nan nan 1.8201724 10267306
-0.44753337 0.11289905 0.95401412 4279111188
-0.43974859 0.11230858 0.95249426 4280626743
-0.43156576 0.1117181 0.95251942 4279572778
-0.42434287 0.1117181 0.95254338 4279573280
-0.4166286 0.11195429 0.95028824 4279573278
-0.40809146 0.1117181 0.94805133 4280888879
-0.40086859 0.11195429 0.94808942 4286086502
-0.39613718 0.11230858 0.95037782 4280632398
-0.38642287 0.1117181 0.94816118 4279966748
-0.37779048 0.11100953 0.94446892 4283455564
-0.3706286 0.11100953 0.9445132 4284046420
-0.36462668 0.11136381 0.94455576 4279970093
-0.35677716 0.11100953 0.94681287 4281018937
-0.34735242 0.11100953 0.9423731 4281218881
-0.34198096 0.11100953 0.94458789 4282073150
-0.33586287 0.1117181 0.94681066 4281415217
-0.32794669 0.11136381 0.94680995 4282138176
-0.32073903 0.1117181 0.94680917 4282797390
-0.31419429 0.11136381 0.94680852 4282863953
-0.30632383 0.11136381 0.94680786 4282994773
-0.29911619 0.11100953 0.94680709 4283257944
-0.29252574 0.11100953 0.94830513 4283258195
-0.28530288 0.11136381 0.94830674 4283521372
-0.27840954 0.11136381 0.94680512 4283653215
-0.27122477 0.11136381 0.94830972 4283784800
-0.26446858 0.11195429 0.94831109 4283786080
-0.25767237 0.11195429 0.95057517 4284047969
-0.24997716 0.11230858 0.95057958 4283653984
-0.24273144 0.11230858 0.9505614 4283390816
-0.23622857 0.11230858 0.95054328 4282340440
-0.22896002 0.11266286 0.95282859 4283389776
-0.2221562 0.11266286 0.95282364 4285888367
-0.21554667 0.11266286 0.95437044 4294901455
-0.20758857 0.11289905 0.95437396 4294901502
-0.20030476 0.11289905 0.95437747 4294901502
-0.19362667 0.11266286 0.95438111 4294901502
-0.18632001 0.11266286 0.95438451 4294901502
-0.17901334 0.11195429 0.95677769 4294901502
-0.17118095 0.11195429 0.95278972 4294901502
-0.16397335 0.11195429 0.95278496 4294901502
-0.15626857 0.1117181 0.95035243 4294901502
-0.14908382 0.1117181 0.95277572 4294901502
-0.14173715 0.11195429 0.95031935 4294901502
-0.13404572 0.11136381 0.94788545 4294901502
-0.1268 0.11077333 0.94627267 4294901502
-0.11932382 0.11041906 0.94384938 4294901502
-0.11136381 0.11041906 0.93980592 4294901502
-0.10384762 0.11041906 0.93983501 4294901502
-0.096685715 0.11041906 0.93986374 4294901502
-0.089523815 0.11018286 0.93746364 4294901502
-0.082186669 0.10959239 0.93587941 4294901502
-0.075761907 0.1092381 0.93994743 4294901502
-0.068617143 0.11041906 0.94400662 4294901502
-0.061264765 0.11041906 0.94402784 4294901502
-0.054057144 0.11100953 0.94404882 4294901502
-0.046700951 0.11041906 0.94005412 4294901502
-0.039306667 0.11018286 0.93767667 4294901502
-0.032160003 0.11018286 0.93770546 4294901502
-0.025066668 0.11018286 0.93786967 4294901502
-0.017904762 0.10982858 0.93803054 4294901502
-0.010742858 0.10982858 0.93818873 4294901502
-0.0035733334 0.10959239 0.93680102 4294901502
0.0035238098 0.10959239 0.93467522 4294901502
0.010548571 0.1092381 0.93334514 4294901502
0.017523808 0.1090019 0.9312914 4294901502
0.02448 0.10864762 0.9314993 4294901502
0.031474285 0.10864762 0.93170369 4294639099
0.038552381 0.1090019 0.93190444 4294639357
0.044047624 0.1074762 0.93210155 4285231753
0.049028575 0.1017981 0.85669738 4286417042
0.055565715 0.1015619 0.85473561 4285890699
0.061813332 0.10132572 0.85279328 4285956235
0.068080001 0.10085334 0.84896481 4285957002
0.074213333 0.10049905 0.84892446 4285956237
0.080476187 0.099790484 0.83872551 4285101191
0.087120004 0.099790484 0.84696496 4285098362
0.093573339 0.10002667 0.84414542 4285164409
0.099790484 0.099790484 0.84228432 4285296765
0.10622857 0.10002667 0.84225845 4285298303
0.11293334 0.10002667 0.8422327 4285298817
0.11910477 0.099790484 0.84220719 4285560708
0.12494857 0.099554293 0.84218192 4285364610
0.13176 0.099790484 0.84215695 4285627012
0.13778095 0.099790484 0.84034264 4285364611
0.14451429 0.099790484 0.84032202 4285365381
0.15093715 0.099790484 0.84030175 4285496966
0.15698667 0.099554293 0.83852261 4286614932
0.16339429 0.099554293 0.83850676 4285625726
0.16980191 0.099554293 0.83845365 4284376933
0.17579049 0.099318095 0.8366878 4284376931
0.18187618 0.099081904 0.83496433 4284508004
0.18767621 0.098609529 0.83328372 4284572775
0.19403809 0.098609529 0.8332662 4284508264
0.20071431 0.098845713 0.83324885 4284639592
0.20626669 0.098373339 0.83323127 4284639847
0.21254668 0.098373339 0.83163124 4284770666
0.21946095 0.098373339 0.8316263 4284836972
0.22525905 0.098373339 0.83008349 4284902508
0.23109715 0.098137148 0.82858539 4285034862
0.23685715 0.097900957 0.82860613 4285101426
0.24276002 0.097664766 0.82716608 4285495413
0.24888761 0.097664766 0.82720011 4285495161
0.25545335 0.097664766 0.82723427 4285560956
0.26117143 0.097664766 0.82585788 4285430140
0.26685908 0.097192384 0.82452542 4285232249
0.2727657 0.096956201 0.82457906 4287076248
0.2783581 0.096720003 0.82272679 4287404194
0.28392002 0.096483812 0.82221645 4287733414
0.28945145 0.096483812 0.82170624 4287996842
0.29556 0.096247621 0.82178843 4288457134
0.30108002 0.09601143 0.82128382 4288523438
0.30737144 0.096247621 0.82137322 4288193708
0.31356004 0.096247621 0.82146496 4287865000
0.31901905 0.09601143 0.82155895 4287733924
0.32444763 0.095775239 0.82048166 4287930021
0.33065718 0.095775239 0.82117498 4288061606
0.33675811 0.095775239 0.82128018 4287997096
0.34293714 0.095775239 0.82138807 4288193196
0.34825525 0.095539048 0.82025415 4288324782
0.3537505 0.095302865 0.82028896 4288325550
0.35943809 0.095066674 0.81973493 4288193966
0.36493334 0.095066674 0.81917816 4288062649
0.37106669 0.095066674 0.81922352 4288061893
0.37720004 0.095066674 0.81927156 4287995598
0.38190478 0.094712384 0.81811357 4287798985
0.38696954 0.094476193 0.81786609 4286548910
0.39308763 0.094476193 0.81823641 4288850364
0.39870858 0.094240002 0.81800014 4286748066
0.40481907 0.094240002 0.81746191 4287339168
0.41092953 0.094476193 0.81815463 4287535525
0.41648 0.094240002 0.81763512 4287470243
0.4216229 0.094003819 0.81712043 4287470240
0.42604956 0.094003819 0.81723046 4287470752
nan nan 1.8213135 5467455
nan nan 1.8213784 16711422
nan nan 1.821445 16711422
nan nan 1.8215144 16711422
nan nan 1.8215864 16711422
nan nan 1.821661 16711422
nan nan 1.8217385 16711422
nan nan 1.8218188 16580349
nan nan 1.8219028 16317434
nan nan 1.8223742 329261
nan nan 1.8222532 1052757
-0.58209717 0.12458667 0.98076642 4279378573
-0.57716 0.12408001 0.98048592 4279968654
-0.57063621 0.12433143 0.98266923 4280693390
-0.56307817 0.12379049 0.98240471 4282004123
-0.55888003 0.12417334 0.98708159 4284638372
-0.55293334 0.12546286 0.98932433 4283654566
-0.53956002 0.12370285 0.98172462 4282405544
-0.53256196 0.12408001 0.98152965 4284047792
-0.52717716 0.12408001 0.98134732 4282341040
-0.51572573 0.12370285 0.97890073 4284903351
-0.50862855 0.12433143 0.97875881 4283591590
-0.50109333 0.12433143 0.97862566 4283853215
-0.49544188 0.12433143 0.98072702 4288521374
-0.4897905 0.12470857 0.98285884 4292469214
-0.48518097 0.12546286 0.98487365 4290890956
nan nan 1.8194498 10267317
-0.44326857 0.11892571 0.94736278 4279374107
-0.43467811 0.11792 0.94354939 4281086003
-0.42386669 0.11754286 0.93748176 4281021490
-0.41808 0.11754286 0.93985045 4281415223
-0.41229716 0.11729144 0.94144297 4279901733
-0.40557334 0.11792 0.93998986 4280232497
-0.39748573 0.11792 0.94156706 4279704101
-0.39032382 0.11792 0.94162548 4279902245
-0.38290477 0.11792 0.94018 4280163361
-0.3752 0.11792 0.94023895 4281084453
-0.36883813 0.11792 0.94029593 4281480502
-0.36167619 0.11792 0.94035113 4281681469
-0.35376 0.11792 0.9404043 4282598981
-0.34661332 0.11754286 0.94039202 4282863443
-0.34016192 0.11754286 0.94037992 4282863694
-0.33302858 0.11754286 0.94036818 4282994255
-0.3258667 0.11754286 0.94185221 4282929745
-0.31972191 0.11792 0.94184333 4283652695
-0.31154287 0.11792 0.94033337 4283981665
-0.30438095 0.11754286 0.94032234 4284442470
-0.29721907 0.11754286 0.94031137 4284509034
-0.29005715 0.11754286 0.94030052 4284312430
-0.28289524 0.11754286 0.94029003 4284311401
-0.27661332 0.11817144 0.94179249 4283983203
-0.26942855 0.11817144 0.94405806 4282863975
-0.26224384 0.11817144 0.94405365 4283981663
-0.25587046 0.11854857 0.94404906 4282864980
-0.24967046 0.11854857 0.9463284 4289903525
-0.24196574 0.11854857 0.94628263 4294901502
-0.23530096 0.11854857 0.94623715 4294901502
-0.22824 0.11917715 0.95006531 4294901502
-0.22099429 0.11917715 0.95004225 4294901502
-0.21374857 0.11917715 0.95001936 4294901502
-0.20650285 0.11892571 0.94999701 4294901502
-0.19874287 0.11817144 0.94601446 4294901502
-0.19100191 0.11792 0.94358325 4294901502
-0.18402667 0.11792 0.9435271 4294901502
-0.17546667 0.11754286 0.93945277 4294901502
-0.16830477 0.11754286 0.93695509 4294901502
-0.16114287 0.11754286 0.93930185 4294901502
-0.15283428 0.11729144 0.9351508 4294901502
-0.14681906 0.11729144 0.9366945 4294901502
-0.13965715 0.11729144 0.93660897 4294901502
-0.13214287 0.11666286 0.93252277 4294901502
-0.12466668 0.11628572 0.93255007 4294901502
-0.11729144 0.11628572 0.93094015 4294901502
-0.10982858 0.11603429 0.92852092 4294901502
-0.10274286 0.11603429 0.93099773 4294901502
-0.095451437 0.11603429 0.92858553 4294901502
-0.088095248 0.11540572 0.92611295 4294901502
-0.080872379 0.11540572 0.92613298 4294901502
-0.073600002 0.11540572 0.922373 4294901502
-0.067169525 0.11540572 0.92237657 4294901502
-0.06009905 0.11603429 0.92874044 4294901502
-0.052857146 0.11565714 0.92621028 4294901502
-0.045809526 0.11540572 0.92238665 4294901502
-0.038678098 0.11540572 0.92239004 4294901502
-0.031714287 0.11540572 0.92239332 4294901502
-0.024666667 0.11502858 0.92001617 4294901502
-0.017580952 0.11502858 0.92020708 4294901502
-0.010548571 0.11502858 0.92299086 4294901502
-0.0035161907 0.11502858 0.92318326 4294901502
0.0034590478 0.11502858 0.92076021 4294901502
0.0104 0.11477715 0.91702294 4294901502
0.017295239 0.11477715 0.91718662 4294901502
0.024213335 0.1144 0.91473138 4294901502
0.031062858 0.11414858 0.91096014 4294770429
0.03775619 0.11389714 0.91109753 4294639100
0.044047624 0.11389714 0.91781437 4292271319
0.048514288 0.10673144 0.84575105 4286417040
0.05459429 0.10648001 0.84299839 4286218894
0.06087238 0.10648001 0.84119815 4286284688
0.067440003 0.10622857 0.83942032 4286286222
0.07368762 0.10572571 0.83587027 4286220174
0.079904765 0.10572571 0.8358742 4285890957
0.086091429 0.10572571 0.83587825 4285693577
0.092468575 0.10522286 0.83415127 4285561734
0.098845713 0.10522286 0.83416021 4285693832
0.10497143 0.10522286 0.83246648 4285825160
0.11106668 0.10472 0.83080089 4285824906
0.11741334 0.10472 0.83082008 4285956237
0.12376001 0.10497143 0.83083934 4286153098
0.1297943 0.10472 0.82921261 4285956232
0.13579811 0.10446857 0.82923663 4285825418
0.14189143 0.10446857 0.82926053 4285693833
0.14826858 0.10396571 0.82928419 4285562504
0.15464571 0.10396571 0.82770163 4285759626
0.16102286 0.10421715 0.82773024 4286680469
0.1674 0.10446857 0.82776535 4284442219
0.17336191 0.10396571 0.82937622 4284573029
0.17972381 0.10396571 0.82629114 4284507494
0.1851943 0.10396571 0.8248257 4284573030
0.19152571 0.10371429 0.8248868 4284507497
0.19785714 0.10371429 0.82494795 4284508006
0.20379049 0.10346286 0.82211393 4284376935
0.20955049 0.10346286 0.82220125 4284573799
0.21632953 0.10346286 0.82228893 4284508264
0.22210857 0.10346286 0.82237649 4284836459
0.2283162 0.10321143 0.82186699 4284836972
0.23414287 0.10321143 0.8219583 4285034865
0.24024001 0.10296001 0.82145214 4285363826
0.24611619 0.10296001 0.82154721 4285297781
